0 0 0 0 0 0 0 0 0 0 0 0 0 0 0 8123 8117 8104 8091 8073 8060 8047 8029 8022 8022 8016 8016 8022 8035 8035 8041 8035 8047 8054 0 0 0 8123 8142 8142 8142 8136 8136 0 0 0 0 0 0 0 0 0 0 0 0 0 0 0 0 0 0 0 0 0 8079 8073 8079 8079 8079 8073 8073 8073 8066 8060 8047 8041 8035 8029 8022 8022 8022 8029 8035 8047 8054 8054 8060 8066 8060 8066 8066 8073 8073 8073 8079 8079 8085 8085 8091 8098 8098 8091 8098 8091 8098 8098 0 0 0 0 0 0 0 8029 8029 8035 8035 8035 8041 8041 8047 0 0 0 0 0 0 0 0 0 8079 8085 8085 8091 8091 8098 8098 8098 8104 0 0 0 0 0 0 0 0 0 0 0 0 0 0 0 0 0 0 0 0 8085 8079 8079 8085 8085 8091 8091 8091 8091 8098 0 0 0 0 0 0 0 0 0 0 0 0 0 0 0 0 0 0 0 0 0 0 0 0 0 0 0 0 0 0 0 0 0 0 0 0 0 0 0 0 0 0 0 0 0 0 0 0 0 0 0 0 0 0 0 0 0 0 0 0 0 0 0 0 0 8054 8041 8035 8029 8022 8022 8016 8016 0 0 0 0 0 0 0 0 8010 8010 8016 8016 8016 8016 8016 8022 8016 8016 8010 8016 8004 7998 7998 7991 7985 0 0 0 0 8016 8022 8035 8035 8041 8041 8054 8054 8054 8066 8066 8079 8085 8091 8091 8091 8091 8085 8073 8066 8054 8041 8035 8035 8029 8029 8029 8029 8022 8022 8035 8054 8073 8091 8104 8110 8130 8136 8149 8149 8155 8162 8155 8149 8142 8136 8123 0 0 0 8079 8085 8079 8085 8085 8091 8104 8104 8104 8110 8104 8104 8091 8085 8073 8066 8054 8047 8041 8029 8022 8022 8029 8035 8041 8041 8041 8041 8054 0 0 0 0 8079 8085 8079 8085 8079 8073 8079 8085 8091 8091 8098 8104 8104 8117 8123 0 0 0 0 0 0 0 0 0 0 0 6444 6452 6456 6460 6464 6480 6480 6488 6484 6480 6476 6472 6460 6444 6424 6412 6396 6376 6361 6345 6334 6322 6322 6318 6310 6303 6291 6284 6276 6268 6253 6238 6223 6204 6186 6178 6171 6164 6171 0 0 0 0 0 0 0 0 0 0 0 0 0 0 0 0 0 0 0 0 0 0 0 8359 8353 0 8326 8306 8299 8286 8266 8253 8246 8213 8207 8187 8168 8155 8155 8142 8136 8117 8110 8104 8104 8104 8104 8098 8091 8091 8091 8091 8098 0 0 8091 8091 8098 0 0 8085 8085 0 0 0 0 0 0 0 0 8054 8054 8054 8060 8060 8066 8079 8079 8073 8079 8085 8085 8085 8085 8085 8079 8079 0 0 0 0 8079 8085 8098 8110 8110 8117 8123 8136 8155 8162 8162 8162 8155 8155 8155 8155 8155 8149 8149 8142 8136 8130 8117 8110 8098 8091 8085 8079 8079 8079 8079 8085 8085 8091 8091 8091 8098 8091 8091 8085 0 0 0 8066 8060 8054 8047 8054 8047 0 0 8054 8066 8073 8085 8085 8091 8091 8104 8110 8117 8123 8136 8155 8162 0 0 0 0 0 0 0 0 0 8168 8130 8098 8091 8091 8104 8110 8104 8098 8091 8091 8085 8066 8029 7998 7967 7949 7936 7924 7918 7906 7912 7918 7918 7930 7930 7949 0 0 8041 8073 8091 8110 8142 8162 8213 8253 8266 8279 8292 8306 0 8279 8266 8220 8155 8123 8091 8041 7998 7998 7991 7985 7973 7967 7961 7961 7955 7949 7936 7936 0 0 0 0 0 0 0 0 0 0 0 0 0 6583 6575 6575 6567 6567 6562 6558 6554 6550 6550 6546 6538 0 0 0 0 0 0 0 0 0 0 0 0 5989 5979 5972 5961 5948 5934 5927 5917 5907 5897 5887 5877 5863 5857 5847 5837 5827 5814 5794 5775 5753 0 5724 5708 5689 0 0 0 0 0 0 0 0 0 0 0 0 0 0 0 0 0 0 0 0 0 0 0 0 0 0 0 0 0 0 0 0 0 0 0 0 0 0 0 0 6849 6849 6849 6845 6849 0 0 0 0 0 0 0 0 0 0 0 0 0 0 0 0 0 0 0 0 0 0 0 4685 4683 4679 4679 4676 4674 4670 4670 4670 0 0 0 0 0 0
0 0 0 0 0 0 0 0 0 0 0 0 8181 8175 8162 8149 8142 8136 8110 8104 8079 8066 8054 8035 8022 8016 8010 8010 8016 8016 8016 8016 8022 0 0 0 8091 8110 8123 8123 8123 8130 8123 8117 0 0 0 0 0 0 0 0 0 0 0 8073 0 0 0 0 0 0 0 8073 8079 8079 8079 8079 8079 8079 8079 8079 8073 8066 8047 8047 8041 8029 8022 8022 8016 8022 8035 8047 8054 8054 8060 8066 8073 8079 8079 8079 8085 8085 8091 8091 8091 8091 8098 8104 8098 8098 8091 8091 8091 8085 8085 8073 0 0 0 0 0 8029 8035 8035 8041 8041 8041 8041 8047 8054 0 0 0 0 0 0 0 8079 8073 8079 8079 8085 8091 8085 8091 8091 0 0 0 0 0 0 0 0 0 0 0 0 0 0 0 0 0 0 0 0 8091 8085 8085 8085 8091 8091 8098 8104 8098 8104 8110 8110 0 0 0 0 0 0 0 0 0 0 0 0 0 0 0 0 0 0 0 0 0 0 0 0 0 0 0 0 0 0 0 0 0 0 0 0 0 0 0 0 0 0 0 0 0 0 0 0 0 0 0 0 0 0 0 0 0 0 0 0 0 0 0 0 8035 8029 8022 8016 8010 8010 8010 8004 0 0 0 0 0 0 0 0 0 0 8041 8041 8035 8041 8041 8035 8035 8035 8029 8022 8010 0 0 0 0 0 0 0 0 0 8022 8035 8035 8041 8041 8047 8054 8060 8060 8066 8073 8085 8085 8091 8091 8091 8085 8073 8066 8054 8041 8035 8029 8029 8029 8029 8022 8022 8022 8035 8047 8066 8079 8085 8104 8110 8117 8130 8136 8142 8142 8142 0 0 0 0 0 0 0 8073 8079 8079 8079 8085 8098 8098 8104 8110 8110 8104 8098 8091 8073 8060 8054 8035 8035 8016 8010 8010 8010 8022 8035 8041 8041 8041 8047 8060 8066 8073 8085 8079 8079 8073 8079 8079 8066 8066 8060 8066 8073 8073 8073 8073 8073 8085 0 0 0 0 0 0 0 0 0 0 0 0 6440 6452 6456 6460 6460 6476 6476 6484 6480 6476 6476 6468 6456 6444 6428 6412 6392 6376 6361 6345 6334 6322 6322 6318 6310 6303 6295 6284 6276 6268 6249 6238 6219 6201 6182 6171 6164 6153 6156 0 0 0 0 0 0 0 0 0 0 0 0 0 0 0 0 0 0 0 0 0 0 8373 8359 8359 8339 8333 8319 8312 8299 8279 8266 0 0 8194 8162 8142 8136 8123 8117 8110 8098 8085 8085 8091 8091 8091 8091 8085 8091 8091 8098 8091 0 0 8085 8085 8091 0 8085 8085 8085 0 0 0 0 0 0 0 0 8079 8079 8079 8079 8079 8079 8085 8085 8079 8085 8091 8091 8091 8085 8085 8085 8091 8104 0 0 0 0 8104 8123 8130 8130 8136 8142 8155 8162 8168 8168 8162 8162 8155 8162 8155 8155 8155 8142 8142 8136 8123 8123 8110 8098 8091 8085 8079 8079 8079 8085 8091 8098 8098 8098 8098 8104 8104 8098 8091 8085 8079 8073 8060 8060 8054 8047 8047 8054 8047 8047 8047 8060 8066 8079 8091 8098 8098 8104 8110 8117 8123 8149 8155 8162 8175 0 0 0 0 0 0 0 8194 8162 0 8091 8079 8085 8085 8098 8098 8085 8085 0 0 0 0 7979 7955 7936 7924 7912 7900 7900 7894 7906 7912 7924 7924 7949 0 0 0 8085 8110 8123 8149 8168 8207 8240 8246 8259 8273 8273 8259 8246 8233 8194 8123 8085 8060 8016 7985 7985 7973 7967 7967 7955 7955 7955 7949 7942 7942 7936 0 0 0 0 0 0 0 0 0 0 0 0 0 0 6571 6567 6567 6558 6554 6558 6550 6546 6546 6546 6529 0 0 0 0 0 0 0 0 0 0 0 5996 5982 0 5965 5961 5951 5941 5927 5917 5910 5900 5890 5880 5870 5857 5847 5834 5817 5801 5778 5762 5737 5727 5715 5699 5689 0 0 0 0 0 0 0 0 0 0 0 0 0 0 0 0 0 0 0 0 0 0 0 0 0 0 0 0 0 0 0 0 0 0 0 0 0 0 0 0 0 0 0 6854 6858 0 0 0 0 0 0 0 0 0 0 0 0 0 0 0 0 0 0 0 0 0 0 0 0 4693 4689 4685 4681 4676 4670 4668 4666 0 0 0 0 0 0
0 0 0 0 0 0 0 0 0 0 0 0 8200 8194 8187 8181 8168 8162 8149 8123 8110 8091 8073 8060 8047 8035 8016 8016 8016 8010 8016 8016 8016 8022 8041 8060 8079 8091 8104 8110 8110 8117 8110 8110 8098 8079 8066 8047 8041 8035 8035 8041 8047 8054 8060 8066 8079 8079 0 0 0 0 0 8066 8066 8066 8066 8066 8079 8073 8073 8066 8066 8054 8047 8041 8035 8022 8016 8016 8016 8022 8029 8041 8054 8054 8060 8066 8073 8073 8085 8085 8085 8098 8098 8098 8098 8098 8098 8104 8091 8085 8085 8079 8079 8079 8079 8066 8054 0 0 0 8035 8041 8035 8035 8041 8041 8047 8047 8054 8047 0 0 0 0 0 0 0 0 8066 0 8073 8079 8079 8079 8085 8085 0 0 0 0 0 0 0 0 0 0 0 0 0 0 0 0 8079 8085 8079 8085 8085 8085 8079 8091 8091 8091 8098 8104 8104 8104 8117 8117 0 0 0 0 0 0 0 0 0 0 0 0 0 0 0 0 0 0 0 0 0 0 0 0 0 0 0 0 0 0 0 0 0 0 0 0 0 0 0 0 0 0 0 0 0 0 0 0 0 0 0 0 0 0 0 0 0 0 0 0 0 0 0 0 8029 8022 8010 8010 7998 7998 7991 7991 7985 0 0 0 0 0 0 0 0 8060 8060 8060 8060 8060 8054 8054 8047 8041 8035 8029 8016 0 0 0 0 0 0 0 0 0 8022 8029 8035 8035 8041 8047 8054 8054 8060 8066 8079 8079 8085 8085 8091 8091 8085 8079 8066 8054 8035 8029 8029 8029 8022 8022 8022 8022 8029 8035 8041 8054 8066 8073 8079 8098 8104 8110 8117 8123 8123 0 0 0 0 0 0 0 0 8066 8079 8079 8079 8085 8091 8098 8104 8110 8110 8104 8091 8085 8066 8054 8041 8029 8022 8010 8004 7998 8010 8016 8035 8035 8041 8041 8047 8054 8066 8066 8073 8073 8066 8066 8066 8066 8060 8041 8029 8035 8047 8047 8047 8047 8047 0 0 0 0 0 0 0 0 0 0 0 0 0 6436 6444 6452 6452 6456 6472 6476 6476 6476 6472 6468 6460 6452 6436 6424 6404 6388 6373 6361 6345 6334 6322 6322 6318 6310 6299 6291 6280 6276 6261 6249 6231 6219 6197 6175 6167 6156 6153 6153 0 0 0 0 0 0 0 0 0 0 0 0 0 0 0 0 0 0 0 0 0 0 8373 8353 8346 8333 8326 8312 8306 8292 0 0 0 0 0 0 0 8110 8104 8098 8085 8079 8073 8066 8073 8079 8085 0 0 0 0 8091 0 8079 0 8079 8085 8085 8085 8079 8085 8085 0 0 0 0 0 0 0 0 8091 8091 8091 8091 8085 8085 8091 8085 8085 8085 8085 8091 8091 8085 8098 8098 8104 0 0 0 0 8110 8117 8130 8142 8142 8149 8149 8162 8168 8175 8168 8162 8162 8155 8155 8155 8149 8142 8142 8136 8130 8130 8117 8110 8104 8098 8085 8079 8079 8085 8091 8104 8104 8110 8104 8104 8110 8098 8098 8098 8091 8085 8073 8066 8060 8054 8054 8047 8047 8041 8047 8054 8060 8073 8079 8079 8091 8098 8104 8110 8123 8130 8149 8162 8162 8175 0 0 0 0 0 0 0 8194 8162 0 0 8066 8073 8079 8079 8079 8079 8085 0 0 0 0 0 7936 7930 7912 7900 7894 7894 7894 7900 7906 7918 7930 0 0 0 0 8104 8130 8142 8155 8168 8207 8227 8233 8240 8253 8253 8240 8227 8207 8162 8098 8060 8029 7998 7979 7973 7961 7955 7955 7949 7942 7942 7942 7936 7930 7930 0 0 0 0 0 0 0 0 0 0 0 0 0 6567 6567 6558 6558 6554 6554 6546 6546 6546 6538 6538 6517 0 0 0 0 0 0 0 0 0 0 0 5992 5979 5975 5965 5961 5951 5941 5934 5924 5917 5907 5897 5887 5873 5857 5844 5827 5811 5794 5769 5749 5727 5721 5708 5699 5686 0 0 0 0 0 0 0 0 0 0 0 0 0 0 0 0 0 0 0 0 0 0 0 0 0 0 0 0 0 0 0 0 0 0 0 0 0 0 0 0 0 0 0 0 0 0 0 0 0 0 0 0 0 0 0 0 0 0 0 0 0 0 0 0 0 0 0 0 4715 4706 4696 4691 4683 4676 4672 4670 0 0 0 0 0 0 0
0 0 0 0 0 0 0 0 0 0 0 8220 8213 8213 8213 8207 8207 8194 8181 8155 8136 8117 8098 8079 8066 8047 8035 8029 8022 8029 8016 8022 8029 8029 8041 8054 8073 8079 8091 8098 8091 8098 8098 8091 8079 8073 8054 8041 8035 8035 8035 8041 8047 8054 8060 8073 8079 8085 8079 8079 8066 8066 8066 8066 8066 8060 8060 8066 8073 8073 8079 8079 8073 8060 8047 8041 8029 8029 8016 8016 8010 8022 8029 8035 8047 8054 8066 8073 8073 8085 8091 8091 8098 8098 8110 8104 8098 8098 8098 8098 8091 8085 8079 8073 8066 8066 8066 8060 8054 8041 8041 8041 8041 8041 8047 8041 8041 8047 8054 8047 8054 0 0 0 0 0 0 0 8066 8066 8066 8073 8073 8073 8073 8073 8079 8079 8073 8079 0 0 0 0 0 0 0 0 0 0 0 0 0 8079 8079 8085 8073 8079 8085 8079 8079 8079 8085 8091 8098 8104 8104 8104 8110 8117 0 0 0 0 0 0 0 0 0 0 0 0 0 0 0 0 0 0 0 0 0 0 0 0 0 0 0 0 0 0 0 0 0 0 0 0 0 0 0 0 0 0 0 0 0 0 0 0 0 0 0 0 0 0 0 0 0 0 0 0 0 0 0 0 0 8004 8004 7991 7991 7985 7991 7985 7985 0 0 0 0 0 0 0 0 8098 8098 8091 8085 8079 8079 8073 8066 8060 8047 8035 8022 0 0 0 0 0 0 0 0 0 8022 8029 8035 8035 8035 8041 8047 8054 8060 8060 8066 8079 8085 8091 8091 8091 8085 8085 8073 8054 8035 8029 8022 8022 8022 8022 8022 8022 8022 8029 8041 8041 8054 8060 8066 8073 8085 8091 8098 8104 8104 0 0 0 0 0 0 0 0 0 8073 8079 8073 8079 8085 8091 8098 8104 8110 8098 8085 8073 8060 8047 8035 8022 8016 8004 7998 7998 8004 8016 8029 8029 8035 8041 8041 8047 8054 8054 8054 8054 8054 0 0 0 8047 8035 8016 8016 8029 8035 8029 8029 8022 8035 0 0 0 0 0 0 0 0 0 0 0 0 6432 6440 6444 6448 6452 6472 6472 6472 6472 6468 6460 6452 6444 6432 6416 6400 6388 6373 6357 6345 6334 6326 6322 6318 6310 6299 6287 6280 6268 6257 6246 6231 6212 6190 6171 6167 6156 6145 6149 0 0 0 0 0 0 0 0 0 0 0 0 0 0 0 0 0 0 0 0 0 0 8333 8333 8326 8312 8312 8299 8286 8273 0 0 0 0 0 0 0 8085 8079 8073 8066 8060 8054 8054 8060 8073 8073 0 0 0 0 0 0 8079 8073 8073 8073 8079 8079 8073 8079 0 0 0 0 0 0 0 0 8104 8098 8104 8098 8098 8091 8091 8098 8091 8091 8091 8091 8091 8098 8091 8104 8104 8117 8130 8130 8136 8136 8136 8136 8149 8162 8162 8155 8162 8175 8175 8175 8168 8168 8155 8149 8149 8142 8142 8142 8130 8123 8117 8117 8110 8098 8091 8085 8079 0 0 0 8098 8104 8110 0 8104 8104 8110 8104 8098 8098 8098 8091 8085 8073 8060 8047 8041 8041 8035 8035 8041 8041 8047 8060 8066 8079 8085 8098 8104 8110 8123 8136 8155 8168 8168 8181 0 0 0 0 0 0 0 8200 0 0 0 8060 8060 8066 8066 8060 8054 0 0 0 0 0 0 7924 7918 7900 7900 7894 7888 7888 7900 7912 7918 0 0 0 0 0 0 8142 8155 8168 8181 8207 8213 8227 8233 8240 8233 8227 8207 8194 8142 8073 8041 0 7985 7973 7961 7955 7942 7942 7930 7930 7930 7924 7924 7924 7918 7918 0 0 0 0 0 0 0 0 0 0 0 0 6567 6562 6562 6558 6554 6554 6550 6546 6538 6533 6525 6501 6480 0 0 6388 0 0 0 0 0 6091 6027 5992 5979 5972 5965 5961 5955 5948 5941 5934 5927 5914 5907 5893 5880 5863 5844 5821 5801 5778 5756 5737 5718 5711 5705 5696 5686 0 0 0 0 0 0 0 0 0 0 0 0 0 0 0 0 0 0 0 0 0 0 0 0 0 0 0 0 0 0 0 0 0 0 0 0 0 0 0 0 0 0 0 0 0 0 0 0 0 0 0 0 0 0 0 0 0 0 0 0 0 0 0 0 0 0 0 0 4728 4719 4708 4700 4689 4681 4672 4668 0 0 0 0 0 0 0
0 0 0 0 0 0 0 0 0 0 0 0 8227 8233 8240 8233 8233 8227 8207 8187 8162 8142 8117 8098 8079 8060 8047 8041 8035 8035 8035 8041 8035 8041 8047 8054 8066 8073 8085 8085 8091 8091 8085 8085 8079 8066 8054 8041 8041 8041 8041 8047 8054 8060 8066 8079 8085 8079 8079 8079 8066 8066 8066 8054 8060 8060 8060 8066 8066 0 0 0 0 8054 8047 8041 8035 8029 8022 8022 8010 8022 8029 8041 8047 8060 8073 8073 8079 8085 8098 8104 8098 8104 8104 8104 8104 8098 8098 8098 8091 8079 8073 8060 8066 8060 8066 8060 8047 8047 8047 8047 8047 8047 8047 8054 8047 8054 8054 8054 0 0 0 0 0 0 0 0 0 8060 8060 8066 8066 8066 8066 8066 8073 8073 8073 8066 0 0 0 0 0 0 0 0 0 0 0 0 0 8079 8079 8079 8079 8079 8085 8079 8073 8079 8085 8091 8098 8104 8098 8104 8110 8117 0 0 0 0 0 0 0 0 0 0 0 0 0 0 0 0 0 0 0 0 0 0 0 0 0 0 0 0 0 0 0 0 0 0 0 0 0 0 0 0 0 0 0 0 0 0 0 0 0 0 0 0 0 0 0 0 0 0 0 0 0 0 0 0 0 7998 7998 7991 7985 7979 7979 7979 7979 0 0 0 0 0 0 0 8117 8117 8117 8110 8104 8104 8098 8085 8073 8066 8054 8041 8035 8022 0 0 0 0 0 0 0 0 8016 8016 8022 8029 8029 8041 8047 8047 8054 8060 8073 8073 8079 8091 8091 8091 0 0 8073 8054 0 0 8022 8022 8022 8022 8022 8016 8016 8022 8035 8035 8041 8054 8054 8060 8066 8079 8085 8085 0 0 0 0 0 0 0 0 0 0 8066 8073 8073 8073 8079 8085 8091 8098 8110 8098 8079 8066 8047 8041 8029 8016 8004 8004 7991 7991 8004 8016 8029 8029 8029 8029 8029 8041 8047 8041 8035 0 0 0 0 0 0 8010 7998 8004 8016 8016 8010 8010 8016 8022 0 0 0 0 0 0 0 0 0 0 0 0 6428 6436 6436 6440 6448 6464 6460 6464 6464 6460 6452 6448 6436 6424 6412 6396 6384 6369 6353 6341 6334 6326 6322 6318 6307 6299 6287 6276 6265 6253 6238 6219 6204 6186 6167 6156 6149 6142 6135 0 0 0 0 0 0 0 0 0 0 0 0 0 0 0 0 0 0 0 8292 8306 8312 8319 8312 8312 8299 8292 8286 8273 8246 0 0 0 0 0 0 0 8047 8041 8041 8035 8035 8029 8035 8041 8041 8047 0 0 0 0 0 0 0 8073 8073 8073 8073 8073 8073 0 0 0 0 0 0 0 0 0 8098 8098 8098 8098 8098 8098 8098 8098 8098 8091 8098 8098 8098 8098 8098 8104 8104 8123 8130 8136 8136 8142 8155 8155 8162 8175 8175 8168 8175 8175 8175 8162 8162 8155 8142 8136 8130 8130 8123 8123 8117 8117 8110 8104 8098 8091 8085 0 0 0 0 0 0 0 0 0 0 0 0 0 0 0 0 0 0 0 0 0 8054 0 0 0 0 0 0 0 0 0 0 0 0 0 0 0 0 0 0 0 0 0 0 0 0 0 0 0 0 0 0 0 8047 8041 8047 8041 8035 0 0 0 0 0 0 0 7918 7900 7894 7894 7888 7888 7900 7906 7918 0 0 0 0 0 8117 8149 8162 8175 8187 8200 8207 8207 8213 8213 8213 8194 8187 0 0 8047 0 0 7973 7967 7955 7942 7936 7930 7924 7918 7912 7906 7900 7894 0 0 0 0 0 0 0 0 0 0 0 0 0 0 6571 6571 6562 6562 6558 6554 6546 6542 6538 6525 6513 6484 6464 0 0 6373 6330 6287 0 0 0 6109 0 5996 0 5975 5965 5965 5961 5955 5948 5941 5931 5924 5914 5904 5887 5867 5837 5814 5794 5769 5746 5727 5711 5708 5699 5693 5683 0 0 0 0 0 0 0 0 0 0 0 0 0 0 0 0 0 0 0 0 0 0 0 0 0 0 0 0 0 0 0 0 0 0 0 0 0 0 0 0 0 0 0 0 0 0 0 0 0 0 0 0 0 0 0 0 0 0 0 0 0 0 0 0 0 0 0 0 4739 4730 4717 4708 4698 0 0 0 0 0 0 0 0 0 0
0 0 0 0 0 0 0 0 0 0 0 0 8253 8253 8253 8253 8253 8246 8233 8207 8187 8155 8130 8110 8091 8073 8054 8054 8047 8041 8035 8047 8047 8047 8054 8060 8066 8073 8073 8085 8085 8085 8085 8079 8079 8066 8054 8047 8041 8041 8041 8047 8054 8066 8066 8079 8091 8085 8085 8079 8066 8060 8060 8047 8041 8041 8041 8047 8054 0 0 0 0 0 8047 8041 8029 8029 8022 8022 8010 8022 8029 8041 8047 8054 8066 8066 8079 8085 8091 8098 8098 8104 8098 8098 8098 8098 8091 8091 8079 8079 8066 8054 8060 8060 8066 8054 8054 8047 8047 8047 8054 8054 8054 8054 8054 8054 8060 8054 0 0 0 0 0 0 0 0 8054 8060 8060 8060 8066 8060 8060 8066 8066 8066 8066 8073 8073 0 0 0 0 0 0 0 0 0 0 0 0 8079 8073 8073 8073 0 0 8073 8079 8085 8085 8085 8091 8098 8098 8098 8098 8104 8098 0 0 0 0 0 0 0 0 0 0 0 0 0 0 0 0 0 0 0 0 0 0 0 0 0 0 0 0 0 0 0 0 0 0 0 0 0 0 0 0 0 0 0 0 0 0 0 0 0 0 0 0 0 0 0 0 0 0 0 0 0 0 0 0 0 0 0 0 7973 7973 7967 7979 7998 8016 0 0 0 0 8117 8130 8123 8123 8110 8117 8104 8104 8098 8079 8079 8060 8054 8041 0 0 0 0 0 0 0 0 0 8004 8010 8010 8016 8022 8035 8041 8041 8047 8054 8060 8066 8079 8085 8085 0 0 0 0 0 0 0 0 8016 8022 8016 8016 8022 8022 8022 8029 8029 8035 8041 8047 8047 8054 8066 8066 8066 8066 0 0 0 0 0 0 0 0 0 0 8054 8060 8066 0 0 0 0 0 0 0 0 8029 8022 8016 8004 7998 7991 0 7985 7998 8010 8022 8022 8022 8022 8022 8029 8041 8035 8035 0 0 0 0 0 0 0 0 0 0 8016 8010 8010 8010 8016 8035 0 0 0 0 0 0 0 0 0 0 0 6424 6432 6432 6440 6444 6456 6452 6452 6452 6452 6444 6436 6424 6416 6404 6388 6376 6365 6353 6341 6330 6326 6322 6314 6310 6299 6284 6272 6261 6249 6234 6216 6197 6178 6164 6153 6142 6135 6131 0 0 0 0 0 0 0 0 0 0 0 0 0 0 0 0 0 0 0 8279 8299 0 8306 8306 8299 8286 8279 8266 8246 8220 0 0 0 0 0 0 0 7998 8004 8010 8004 8010 8016 8010 8022 8022 0 0 0 0 0 0 0 0 8054 8066 8066 8066 8066 8060 0 0 0 0 0 0 0 0 0 8098 8098 8104 8104 8104 8104 8098 8110 8104 8104 8104 8091 8104 8104 8110 8110 8117 8123 8136 8149 8149 8155 8162 8168 8175 8187 8187 8187 8181 8175 8168 8162 8155 8142 8136 8123 8117 8117 8117 8110 8104 8104 8098 8091 8085 8079 8079 0 0 0 0 0 0 0 0 0 8085 0 0 0 0 0 0 0 0 0 0 0 0 8066 0 0 0 0 0 0 0 0 0 0 0 0 0 0 0 0 0 0 0 0 0 0 0 0 0 0 0 0 0 0 8029 8022 8022 8022 8016 8022 0 0 0 0 0 0 7912 7906 7900 7894 7882 7888 7900 7912 7924 7949 7985 8022 8054 8091 8123 8142 8162 8175 8181 8187 8200 8194 8194 8187 8181 8168 0 0 0 0 0 0 0 7955 7942 7930 7924 7912 7900 7888 7888 7876 7870 7864 7864 0 0 0 0 0 0 0 0 0 0 0 0 0 0 0 0 6571 6562 6554 6542 6538 6521 6513 6497 6472 6448 0 0 6369 6334 6295 0 0 0 0 0 0 0 0 5968 5965 5961 5958 5955 5944 5941 5931 5924 5910 5893 5877 5840 0 5785 5762 5740 5721 5708 5702 5696 5693 5680 0 0 0 0 0 0 0 0 0 0 0 0 0 0 0 0 0 0 0 0 0 0 0 0 0 0 0 0 0 0 0 0 0 0 0 0 0 0 0 0 0 0 0 0 0 0 0 0 0 0 0 0 0 0 0 0 0 0 0 0 0 0 0 0 0 4776 4765 4758 4749 4741 4732 0 0 0 0 0 0 0 0 0 0 0 0
0 0 0 0 0 0 0 0 0 0 0 0 0 8312 8306 8299 8279 8273 8253 8227 8207 8175 8149 8130 8104 8085 8066 8066 8060 8054 8054 8054 8060 8060 8066 8066 8073 8079 8079 8085 8085 8085 8079 8079 8073 8066 8054 8054 8054 8047 8041 8047 8054 8066 8073 8079 8091 8085 8079 8073 8066 8054 8047 8035 8035 8022 8022 8022 8022 8035 0 0 0 0 8035 8029 8029 8029 8016 8016 8010 8010 8029 8035 8035 8047 8054 8054 0 0 8079 8085 8091 8091 8091 8091 8091 8085 8085 8079 8079 8066 8060 8054 8060 8060 8060 8060 8060 8060 8060 8060 8060 8060 8054 8054 8054 8054 8060 8060 0 0 0 0 0 0 0 0 0 8054 8054 8060 8060 8060 8054 8060 8066 8066 8066 8066 8066 8066 8073 8073 0 0 0 0 0 0 0 0 0 8073 8079 8073 8073 8079 8073 8073 8073 8079 8079 8085 8091 8098 8098 8104 8098 8104 0 0 0 0 0 0 0 0 0 0 0 0 0 0 0 0 0 0 0 0 0 0 0 0 0 0 0 0 0 0 0 0 0 0 0 0 0 0 0 0 0 0 0 0 0 0 0 0 0 0 0 0 0 0 0 0 0 0 0 0 0 0 0 0 0 0 0 0 0 0 0 7979 7998 8010 8035 8060 8091 8110 8123 8130 8136 8136 8136 8130 8117 8117 8104 8104 8091 8073 8073 8047 8035 8016 0 0 0 0 0 0 0 0 0 7991 7998 8004 8010 8022 8029 8035 8035 8041 8047 8054 8060 8060 0 0 0 0 0 0 0 0 0 8010 8016 8016 8016 8016 8016 8022 8022 8022 8029 8029 8035 8035 8041 8041 8047 8047 8047 0 0 0 0 0 0 0 0 0 0 0 8041 8047 0 0 0 0 0 0 0 0 0 7998 7998 7991 0 0 7973 7979 0 7998 8010 8004 8004 8004 8010 8010 8010 8010 8004 0 0 0 0 0 0 0 0 0 8016 8016 8010 8010 8022 0 0 0 0 0 0 0 0 0 0 0 0 6420 6424 6428 6428 6432 6440 6452 6448 6448 6444 6440 6436 6424 6420 6408 6396 6384 6373 6361 6349 6341 6330 6326 6322 6318 6310 6299 6284 6268 6257 6246 6227 6208 6190 6175 6160 6149 6142 6138 6127 6124 0 0 0 0 0 0 0 0 0 0 0 0 0 0 0 0 0 0 8286 8299 8306 8306 8299 8292 8273 8253 8233 8200 8168 8123 8085 0 0 0 0 0 0 7973 7979 7985 7998 7991 7998 8004 0 0 0 0 0 0 0 0 0 8047 8054 8060 0 0 8054 8054 8060 0 0 0 0 0 0 0 8104 8110 8110 8117 8117 8110 8110 8110 8110 8104 8104 8098 8098 8104 8110 8117 8117 8123 8136 8149 8162 8168 8168 8175 8181 8181 8187 8181 8175 8175 8168 8155 8149 8136 8130 8117 8110 8104 8104 8098 8091 8091 8085 8079 8066 8066 8060 0 0 0 0 0 0 0 0 0 0 8079 8079 8085 0 0 0 0 0 0 0 0 0 0 0 0 0 0 0 0 0 0 0 0 0 0 0 0 0 0 0 0 0 0 0 0 0 0 0 0 0 0 0 0 8010 8010 8010 8010 8004 8010 8010 0 0 0 0 7912 7912 7900 7894 7888 7888 7888 7900 7918 7936 7967 7998 8029 8054 8085 8110 8136 8155 8162 8175 8175 8175 8175 8175 8175 8162 0 0 0 0 0 0 0 7955 7942 7930 7918 7906 7900 7888 7870 7858 7852 7846 7840 0 0 0 0 0 0 0 0 0 0 0 0 0 0 0 0 0 6579 6562 6554 6538 6525 6517 6501 6484 6456 6428 6404 0 6361 6337 6303 6284 0 0 0 0 0 0 0 0 5965 5961 5961 5955 5951 5948 5941 5931 0 0 0 0 0 0 0 5734 5718 5705 5702 5696 5693 0 0 0 0 0 0 0 0 0 0 0 0 0 0 0 0 0 0 0 0 0 0 0 0 0 0 0 0 0 0 0 0 0 0 0 0 0 0 0 0 0 0 0 0 0 0 0 0 0 0 0 0 0 0 0 0 0 0 0 0 0 0 0 0 0 4776 4769 4763 4760 4754 4749 0 0 0 0 0 0 0 0 0 0 0 0 0
0 0 0 0 0 0 0 0 0 0 0 0 0 0 8333 8319 8312 8286 8273 8240 8220 8194 8162 8142 8123 8098 8085 8079 8073 8066 8066 8073 8073 8079 8085 8079 8079 8085 8091 8085 8091 8091 8085 8079 8073 8060 8054 8047 8041 8047 8041 8047 8054 8066 8073 8085 8091 8085 8079 8066 8060 8041 8035 8029 8016 8004 8004 8004 8010 8010 0 0 0 0 8035 8029 8029 8029 8022 8016 8004 8010 8022 8022 8029 8035 0 0 0 0 0 8066 8066 8079 8079 8079 8079 8073 8073 8060 8060 8047 8047 8035 8047 8054 8060 8060 8060 8066 8066 8066 8066 8060 8060 8060 8060 8060 8060 8060 0 0 0 0 0 0 0 0 0 8054 8054 8060 8054 8054 8054 8054 8054 8060 8060 8054 8066 8066 8073 8066 0 0 0 0 0 0 0 0 0 8079 0 0 0 0 8073 8073 8073 8073 8079 8079 8091 8098 8098 8098 8098 8104 0 0 0 0 0 0 0 0 0 0 0 0 0 0 0 0 0 0 0 0 0 0 0 0 0 0 0 0 0 0 0 0 0 0 0 0 0 0 0 0 0 0 0 0 0 0 0 0 0 0 0 0 0 0 0 0 0 0 0 0 0 0 0 0 0 0 0 0 0 0 0 0 0 0 0 0 8098 8110 8136 8136 8142 8149 8136 8136 8123 8123 8110 8104 8098 8079 8060 8047 8029 0 0 0 0 0 0 0 0 0 0 7985 7991 7991 8004 8022 8022 8022 8029 8029 8029 8035 8035 8029 0 0 0 0 0 0 0 0 0 8010 8010 8010 8016 8016 8016 8016 8016 8022 8016 8016 8022 8022 8029 8029 8035 8035 8035 0 0 0 0 0 0 0 0 0 0 0 8016 8016 0 0 0 0 0 0 0 0 0 0 7985 0 0 7979 7979 7973 0 7991 7998 7991 7985 7985 7985 7985 7979 7973 7967 0 0 0 0 0 0 0 0 0 8022 8022 0 0 0 0 0 0 0 0 0 0 0 0 0 0 0 6416 6424 6428 6428 6428 6440 6444 6440 6440 6440 6436 6428 6420 6412 6400 6392 6380 6369 6357 6345 6337 6330 6326 6322 6314 6307 6295 6280 6265 6253 6238 6223 6201 6186 6167 6156 6149 6142 6135 6127 6120 0 0 0 0 0 0 0 0 0 0 0 0 0 0 0 0 0 0 8279 8292 8292 8273 8253 8246 8220 8200 8168 8136 8098 8060 8016 7979 0 0 0 0 7942 7955 7961 7973 7985 7985 7991 7998 0 0 0 0 0 0 0 0 0 0 8054 0 0 0 8054 8054 8054 8054 8054 8047 8066 8085 8104 8110 8117 8123 8117 8123 8123 8123 8123 8110 8104 8098 8079 8079 8091 8091 8098 8098 8104 8117 8136 8149 8155 8168 8162 8168 8175 8181 8181 8181 8168 8162 8155 8149 8142 8130 8117 8104 8098 8091 8091 8085 8079 8073 8073 8066 8054 8054 8047 0 0 0 0 0 0 0 0 0 8066 8073 8073 8079 8079 0 0 0 0 0 0 0 8098 8098 8104 8104 8110 8098 8091 8098 8104 8104 8098 0 0 0 0 0 0 0 0 0 0 0 0 0 0 0 0 0 0 0 0 0 8004 8004 8004 8004 8004 8010 8010 8010 7998 7961 7936 7918 7918 7906 7900 7900 7894 7894 7906 7930 7949 7979 8010 8035 8060 8091 8110 8130 8155 8162 8168 8168 8168 8175 8168 8168 0 0 0 0 0 0 0 0 7949 7936 7918 7906 7894 7882 7858 7840 7828 7816 7811 7793 0 0 0 0 0 0 0 0 0 0 0 0 0 0 0 6638 6609 6583 6558 6538 6525 6513 6501 6484 6468 6436 6412 6392 6376 6361 6337 6310 6295 0 0 0 0 0 0 0 0 5968 5968 5965 5961 5958 5958 5948 0 0 0 0 0 0 0 0 5734 5721 5708 5705 0 0 0 0 0 0 0 0 0 0 0 0 0 0 0 0 0 0 0 0 0 0 0 0 0 0 0 0 0 0 0 0 0 0 0 0 0 0 0 0 0 0 0 0 0 0 0 0 0 4978 0 0 0 0 0 0 0 0 0 0 0 0 0 0 0 0 0 4769 4767 4765 4765 4763 4760 0 0 0 0 0 0 0 0 0 0 0 0 0
0 0 0 0 0 0 0 0 0 0 0 0 0 0 8359 8339 8319 8292 8279 8253 8227 8200 8168 8149 8130 8110 8104 8091 8091 8085 8091 8091 8098 8098 8098 8098 8091 8098 8091 8098 8098 8098 8091 8079 8073 8060 8047 8047 8041 8047 8041 8054 8060 8066 0 8085 8091 8085 8073 8066 8054 8035 8022 8004 7998 7991 7985 7985 7985 7985 8004 8010 8016 8016 8022 8022 8029 8029 8022 8022 8010 8010 8010 8016 8016 8022 0 0 0 0 0 8054 8060 8066 8073 8066 8060 8047 8047 8047 8041 8035 8029 8029 8041 8047 8060 8066 8073 8066 8079 8073 8079 8066 8066 8073 8066 8066 8066 8066 8073 0 0 0 0 0 0 0 8047 8047 8047 8047 8047 8047 8041 8047 8047 8047 8047 8047 8054 8054 8060 8066 8066 0 0 0 0 0 0 0 0 8073 0 0 0 0 0 8073 8073 8073 8066 8073 8079 8085 8091 8091 8098 0 0 0 0 0 0 0 0 0 0 0 0 0 0 0 0 0 0 0 0 0 0 0 0 0 0 0 0 0 0 0 0 0 0 0 0 0 0 0 0 0 0 0 0 0 0 0 0 0 0 0 0 0 0 0 0 0 0 0 0 0 0 0 0 0 0 0 0 0 0 0 0 0 0 0 0 8085 8104 8117 8130 8130 8142 8136 8136 8130 8117 8117 8110 8098 8091 8073 8060 8035 8022 0 0 0 0 0 0 0 0 7955 7967 7973 7979 7979 7991 7998 8010 8010 8010 8016 8016 8010 8016 8010 0 0 0 0 0 0 0 0 0 8010 8004 8004 8010 8010 8010 8010 8010 8016 8010 8010 8016 8016 8016 8016 8016 8022 0 0 0 0 0 0 0 0 0 0 0 0 7998 7991 7991 0 0 0 0 0 0 0 0 0 7979 7979 7979 7979 7973 7973 7979 7979 7979 7967 7967 7967 7961 7961 7955 7942 7936 0 0 0 0 0 0 0 0 7998 8022 8029 8022 8029 8035 0 0 0 0 0 0 0 0 0 0 0 0 6416 6420 6424 6424 6428 6432 6444 6440 6436 6436 6432 6424 6416 6408 6400 6388 6376 6365 6353 6345 6337 6330 6326 6322 6314 6303 6287 6272 6257 6246 6234 6216 6197 6178 6164 6156 6149 6138 6131 6127 0 0 0 0 0 0 0 0 0 0 0 0 0 0 0 0 0 0 0 8273 0 0 8240 8213 8187 8168 8136 8110 8073 8035 8004 7973 7942 0 0 0 7918 7930 7942 7949 7961 7973 7979 7985 7991 7998 7998 0 0 0 0 0 0 0 0 0 0 0 0 0 0 8054 8047 8047 8047 8066 8085 8104 8117 8117 8136 8130 8117 8117 8110 8098 8079 8073 8060 8047 8041 8047 8047 8060 8066 8085 8091 8117 8136 8155 8162 8162 8162 8168 8175 8168 8168 8162 8155 8142 8136 8130 8117 8104 8091 8079 8079 8079 8073 8066 8066 8060 8054 8047 8041 8041 0 0 0 0 0 0 0 8054 8060 8060 8060 8066 8066 8073 8073 0 0 0 0 8117 8117 8117 8123 8123 8130 8136 8130 8123 8123 8123 8123 8117 0 0 0 0 0 0 0 0 0 0 0 0 0 0 0 0 0 0 0 0 0 8004 8004 0 8004 8004 8010 8010 8010 8004 7985 7955 7936 7930 7930 0 0 0 0 0 0 7973 7998 8022 8047 8060 8085 8110 8130 8149 8162 8162 8162 8168 8168 8162 0 0 0 8136 0 0 0 0 0 7930 7924 7912 7888 7876 7858 7840 7811 7805 7781 7758 7723 7689 0 0 0 0 0 0 0 0 0 0 0 0 0 0 6655 6625 6596 6562 6538 6517 6501 6488 6472 6452 6420 6400 6384 6373 6361 6345 6326 0 0 0 0 0 0 0 0 0 0 5972 5972 5972 5968 5961 5958 0 0 0 0 0 0 0 0 5727 5718 0 0 0 0 0 0 0 0 0 0 0 0 0 0 0 0 0 0 0 0 0 0 0 0 0 0 0 0 0 0 0 0 0 0 0 0 0 0 0 0 0 5078 5066 5058 0 0 0 0 0 0 0 4987 4975 0 0 0 0 0 0 0 0 0 0 0 0 0 0 0 0 4763 4767 4767 4769 4769 0 0 0 0 0 0 0 0 0 0 0 0 0 0
0 0 0 0 0 0 0 0 0 0 0 0 0 0 8373 8339 8326 8299 8273 8253 8233 8200 8175 8155 8136 8123 8110 8110 8104 8110 8110 8117 8117 8117 8117 8117 8110 8110 8110 8110 8104 8104 8098 8085 8073 8066 8054 8047 8047 8047 8047 8054 8060 0 0 8091 8091 8085 8066 8047 8035 8022 8004 7991 7979 7979 7973 7967 7973 7979 7991 7998 8016 8016 8016 8022 8016 8016 8016 8010 8004 8004 8004 8004 8004 8004 8004 8004 8016 8022 8029 8041 8047 8054 8060 8047 8047 8035 8035 8035 8029 8022 8016 8022 8041 8054 8066 8073 8079 8085 8079 8085 8085 8073 8073 8073 8079 8079 8079 8073 8085 0 0 0 0 0 0 0 8060 8054 8054 8047 8041 8041 8035 8041 8041 8041 8041 8041 8047 8047 8054 8066 8066 0 0 0 0 0 0 0 0 0 0 0 0 0 0 8060 8054 8060 0 8066 8079 8079 8085 8085 0 0 0 0 0 0 0 0 0 0 0 0 0 0 0 0 0 0 0 0 0 0 0 0 0 0 0 0 0 0 0 0 0 0 0 0 0 0 0 0 0 0 0 0 0 0 0 0 0 0 0 0 0 0 0 0 0 0 0 0 0 0 0 0 0 0 0 0 0 0 0 0 0 0 0 0 0 8085 8110 8117 8130 8130 8136 8136 8130 8123 8117 8110 8104 8098 8085 8073 8054 0 0 0 7973 7967 7955 7955 7955 7955 7961 7961 7967 7961 7973 7979 7979 7991 7991 7991 7991 7991 7998 7998 7985 7991 7985 0 0 0 0 0 0 0 8004 8004 8004 8010 8010 8010 8004 8004 8010 8004 8004 8004 8004 8004 8010 8010 8010 8010 8016 0 0 0 0 0 0 0 0 0 0 0 7979 7979 7973 7967 0 0 0 0 7961 7967 7967 7973 7979 7979 7979 7979 7973 7967 7967 7967 7961 7955 7949 7942 7942 7936 7930 7918 7912 7906 0 0 0 0 0 7942 7967 7991 8022 8029 8035 8035 8041 0 0 0 0 0 0 0 0 0 0 0 0 6408 6420 6424 6424 6424 6432 6440 6436 6436 6432 6428 6420 6412 6404 6396 6384 6373 6365 6353 6345 6337 6330 6326 6322 6314 6303 6287 6272 6253 6242 6227 6212 6193 6171 6160 6149 6142 6135 6127 6124 6116 0 0 0 0 0 0 0 0 0 0 0 0 0 0 0 0 0 0 0 0 0 0 0 8123 8098 8073 8041 8016 7991 7961 7942 7918 7906 7900 7900 7906 7912 7924 7936 7949 7961 7967 7967 7979 7985 7991 0 0 7985 0 0 0 0 0 0 0 0 0 0 0 0 8035 0 8035 8041 8060 8079 8091 8098 8110 8110 8098 8091 0 0 0 0 8016 7998 7991 7998 8004 8022 8022 8041 0 0 0 0 0 0 0 8142 8142 8142 8142 8142 8130 8117 8117 8110 8098 8085 8079 8066 8066 8060 8054 8060 8054 8047 8047 8035 8035 8029 8029 0 0 0 8029 8029 8041 8047 8054 8054 8060 8060 8066 8073 8079 8085 8091 8110 8117 8117 8123 8123 8130 8136 8142 8142 8136 8136 8130 8123 8123 8117 0 0 0 0 0 0 0 0 0 0 0 0 0 0 0 0 0 0 0 0 0 0 0 0 0 8016 0 0 0 8010 7991 0 0 7955 7949 0 0 0 0 0 0 0 8022 8041 8054 8066 8085 8110 8130 8142 8155 8155 8162 8162 8162 8155 8162 8162 8149 8142 0 0 0 0 0 7942 7930 7906 7882 7864 7846 7828 7805 7787 7769 7740 7694 0 7598 0 0 0 0 0 0 0 0 0 6800 6773 6738 6711 6681 6647 6613 6567 6529 6505 6492 6476 6456 6436 6412 6392 6380 6373 6369 6353 6345 0 0 0 0 0 0 0 0 0 5972 5975 5975 5972 5972 5972 5968 0 0 0 0 0 0 0 0 0 0 0 0 0 0 0 0 0 0 0 0 0 0 0 0 0 0 0 0 0 0 0 0 0 0 0 0 0 0 0 0 0 0 0 0 0 0 0 0 0 0 5088 5078 5068 5061 5053 5048 5038 5036 5026 5016 5009 5002 4995 4985 0 0 0 0 0 0 0 0 0 0 0 0 0 0 0 4756 4760 4760 4763 4767 0 0 0 0 0 0 0 0 0 0 0 0 0 0
0 0 0 0 0 0 0 0 0 0 0 0 8455 8428 8387 0 8326 8292 8273 8246 8220 8194 8168 8149 8130 8123 8117 8117 8117 8123 8130 8130 8136 8136 8136 8130 8123 8123 8117 8117 8117 8117 8104 8091 8079 0 0 0 8060 8066 0 8073 0 8079 0 0 0 0 0 0 0 8004 7991 7979 7967 7961 7961 7973 7973 7979 7991 7998 8010 8016 8016 8016 8016 8016 0 0 7998 7998 7991 7998 7998 7991 7991 7998 7998 8010 8022 8029 8041 8041 8041 8035 8029 8016 8016 8016 8016 8010 8010 8022 0 8060 8079 8079 8085 8085 8091 8098 8091 8085 8079 8079 8079 8079 8079 8085 8085 0 0 0 0 0 0 0 0 0 8060 8047 8041 8035 8035 8041 8035 8035 8035 8041 8047 8047 8054 8060 0 0 0 0 0 0 0 0 0 0 0 0 0 0 0 0 0 0 0 0 0 0 8066 0 0 0 0 0 0 0 0 0 0 0 0 0 0 0 0 0 0 0 0 0 0 0 0 0 0 0 0 0 0 0 0 0 0 0 0 0 0 0 0 0 0 0 0 0 0 0 0 0 0 0 0 0 0 0 0 0 0 0 0 0 0 0 0 0 0 0 0 0 0 0 0 0 0 0 0 8098 8098 8104 8110 8117 8130 8130 8130 8130 8123 8110 8110 8098 8091 8085 8079 0 0 0 0 0 0 7967 7961 7961 7955 7961 7961 7961 7961 7967 7967 7973 7973 7985 7985 7979 7979 7985 7985 7979 7979 7979 7979 7973 7979 7985 0 0 8004 8004 8004 8010 8010 8004 8010 8010 8004 7998 8004 8004 7998 7998 7998 7998 7998 7998 7998 0 0 0 0 0 0 0 0 0 0 0 0 0 7973 7967 7955 7961 7949 7949 7949 7949 7949 7955 7967 7973 7979 7979 7979 7979 7973 7967 7967 7961 7949 7936 7930 7924 7918 7906 7900 7900 7888 7888 7894 7900 7906 7918 0 0 0 0 8035 8041 8041 8047 8060 0 0 0 0 0 0 0 0 0 0 0 0 0 6420 6420 6420 6424 6432 6436 6432 6432 6428 6420 6416 6408 6404 6392 6384 6369 6361 6353 6345 6337 6330 6326 6322 6314 6307 6287 6272 6253 6242 6227 6208 6186 6167 6156 6145 6142 6135 6131 6120 6116 6113 6113 6113 6106 0 0 0 0 0 0 0 0 0 0 0 0 0 0 0 0 0 0 0 0 0 8016 7991 7973 7949 7930 7918 7900 7894 7888 7888 7894 7900 7912 7918 7930 7942 0 7955 7967 7979 7985 0 0 0 0 0 0 0 0 0 0 0 0 0 0 0 0 0 0 0 0 0 0 0 0 0 0 0 0 0 0 0 0 0 0 0 7955 7973 7979 0 0 0 0 0 0 0 0 8123 8123 8123 8123 8117 8104 8098 8091 8091 8079 8073 8060 8054 8054 8054 8054 8047 8041 8041 8041 8035 8029 8029 8029 8022 8022 0 0 0 0 8047 8047 8047 8054 8054 8060 8073 8073 8079 8091 0 0 8117 8123 8130 8136 8149 8142 8142 8149 8136 8123 8136 8123 8117 0 0 0 0 0 0 0 0 0 0 0 0 0 0 0 0 0 0 0 0 0 0 0 0 0 0 0 0 0 0 0 0 0 7991 0 0 0 0 0 0 0 0 8054 8066 8073 8079 8091 8110 8123 8136 8149 0 8149 0 8155 8162 8155 0 0 0 0 0 0 0 0 0 7936 7906 7882 7858 7834 7811 7793 7775 7746 7706 7655 7604 0 0 0 0 0 0 0 0 0 0 0 6777 6742 6720 6694 6660 0 6571 6525 6492 6476 6460 6440 6420 6400 6388 6380 6376 6373 6361 6361 6357 0 0 0 0 0 0 0 0 0 0 5979 5979 5979 5975 0 0 0 0 0 0 0 0 0 0 0 0 0 0 0 0 0 0 0 0 0 0 0 0 0 0 0 0 0 0 0 0 0 0 0 0 0 0 0 0 0 0 0 0 0 0 0 0 0 0 0 0 5073 5066 5058 5051 5043 5036 5034 5026 5024 5019 5016 5012 5009 0 0 0 0 0 0 0 0 0 0 0 0 0 4745 4747 4749 4752 4752 4752 4756 4752 0 0 0 0 0 0 0 0 0 0 0 0 0
0 0 0 0 0 0 0 0 0 0 0 0 0 0 0 0 8319 8286 8259 8227 8207 8181 8155 8136 8123 8117 8117 8123 8130 8136 8142 8149 8155 8155 8162 8155 8142 8142 8130 8136 8130 8130 0 0 0 0 0 0 8073 8079 0 8085 0 8091 0 0 0 0 0 0 0 7998 7979 7973 7967 7967 7973 7967 7979 7985 7991 7998 8010 8016 8016 8016 0 0 0 0 0 0 7991 8004 8004 8004 7998 7991 7998 8016 8022 8022 8022 8022 8022 8004 8004 8004 8004 7998 7998 7998 0 0 0 8060 8073 8079 8091 8091 8098 8098 8098 8091 8091 8085 8079 8085 8085 8085 8085 8091 0 0 0 0 0 0 0 0 8066 8060 8041 8041 8035 8035 8035 8029 8022 8022 8022 8029 0 0 0 0 0 0 0 0 0 0 0 0 0 0 0 0 0 0 0 0 0 0 0 0 0 0 0 0 0 0 0 0 0 0 0 0 0 0 0 0 0 0 0 0 0 0 0 0 0 0 0 0 0 0 0 0 0 0 0 0 0 0 0 0 0 0 0 0 0 0 0 0 0 0 0 0 0 0 0 0 0 0 0 0 0 0 0 0 0 0 0 0 0 0 0 0 0 0 0 0 8110 8117 8117 8130 8130 8136 8142 8136 8123 8123 8110 8098 8091 8091 8085 8066 0 0 0 0 0 0 0 7973 7961 7961 7961 7967 7961 7961 7967 7967 7973 7973 7973 7979 7979 7979 7973 7973 7973 7973 7973 7973 7973 7979 7979 7979 7979 0 8010 8010 8004 8010 8010 8010 8004 8010 8004 7998 8004 7998 7998 7991 7991 7991 7985 7985 0 0 0 0 0 0 0 0 0 0 0 0 0 0 0 7949 7942 7936 7942 7942 7936 7936 7949 7961 7967 7967 7979 7979 7979 7979 7973 7973 7955 7955 7949 7930 7918 7912 7900 7900 7894 7882 7882 7888 7888 7894 7906 7918 7936 0 0 8016 8041 8047 8054 8066 8079 0 0 0 0 0 0 0 0 0 0 0 0 0 0 6424 0 0 6432 6436 6432 6432 6428 6416 6412 6408 6400 6388 6380 6369 6357 6349 6341 6337 6330 6326 6322 6314 6307 6287 6272 6253 6242 6223 6208 6186 6164 6153 6145 6142 6135 6127 6120 6116 6113 6113 6113 6109 6098 0 0 0 0 0 0 0 0 0 0 0 0 0 0 0 0 0 0 0 7985 7967 7955 7936 7924 7906 7900 7882 7882 7882 7882 7882 7894 7900 7912 7918 7930 7942 7949 7961 7967 7979 7985 7979 0 0 0 0 0 0 0 0 0 0 0 0 0 0 0 0 0 8010 0 0 0 0 0 0 0 7985 7967 7949 0 0 7924 7918 7918 7918 7930 7936 0 0 0 0 0 0 0 0 8098 8091 8098 8104 8098 8085 8079 8073 8066 8066 8060 8054 8047 8047 8047 8047 8047 8047 8035 8035 8035 8029 8022 8029 8022 8029 8022 8029 8035 8035 8041 8054 8047 8054 8054 8066 8079 8079 0 0 0 8130 8130 8130 8136 8142 8142 8149 8142 8142 8136 8130 8130 8123 8110 8104 0 0 0 0 0 0 0 0 0 0 0 0 0 0 0 0 0 0 0 0 0 0 0 0 0 0 0 0 0 0 0 0 0 0 0 0 0 0 0 0 0 8079 8085 8091 8091 8104 8110 0 0 0 0 0 0 0 8149 8149 0 0 0 0 0 0 0 0 0 0 0 0 0 0 7787 7764 7735 7700 7666 7610 7548 0 0 7340 7237 7167 0 0 0 6927 6876 0 0 6755 6729 0 0 0 0 0 0 0 6444 6428 6408 6392 6384 6376 6376 6373 6369 0 0 0 0 0 0 0 0 0 0 0 0 0 0 0 0 0 0 0 0 0 0 0 0 0 0 0 0 0 0 0 0 0 0 0 0 0 0 0 0 0 0 0 0 0 0 0 0 0 0 0 0 0 0 0 0 0 0 0 0 0 0 0 0 0 0 0 0 0 5056 5053 5051 5043 5036 5031 5026 5026 5021 5024 5024 0 0 0 0 0 0 0 0 0 0 0 0 4732 4734 4739 4739 4741 4741 4741 0 0 0 0 0 0 0 0 0 0 0 0 0 0 0 0
0 0 0 0 0 0 0 0 0 0 0 0 0 0 0 0 8319 8273 8246 8213 8200 8175 8142 8130 8117 8110 8117 8130 8136 8142 8149 8162 8168 8175 8168 8168 8162 8155 8149 8149 8142 8136 0 0 0 0 0 0 0 0 0 0 0 0 0 0 0 0 0 0 0 0 7998 7985 7973 7973 7985 7985 7985 7985 7998 8004 8010 8016 8016 0 0 0 0 0 0 0 0 8010 8010 8010 8010 0 0 0 0 0 0 0 0 0 0 0 7985 7991 0 0 0 0 0 8054 8073 8079 8098 8091 8104 8104 8104 8104 8098 8091 8091 8091 8091 8091 8098 8098 0 0 0 0 0 0 0 0 0 0 0 0 0 8035 8010 8004 7998 8004 7998 0 0 0 0 0 0 0 0 0 0 0 0 0 0 0 0 0 0 0 0 0 0 0 0 0 0 0 0 0 0 0 0 0 0 0 0 0 0 0 0 0 0 0 0 0 0 0 0 0 0 0 0 0 0 0 0 0 0 0 0 0 0 0 0 0 0 0 0 0 0 0 0 0 0 0 0 0 0 0 0 0 0 0 0 0 0 0 0 0 0 0 0 0 0 0 0 0 0 0 0 0 8110 8117 8117 8123 8130 0 0 0 8117 8104 8098 8085 8079 8073 8060 8047 0 0 0 0 0 0 0 0 7973 7967 7973 7973 7973 7973 7973 7967 7973 7979 7985 7985 7985 7979 7973 7973 7967 7967 7967 7967 7967 7973 7979 7985 7985 7998 8010 8010 8010 8010 8010 8010 8010 8010 8004 7998 7998 7991 7991 7985 7991 7985 0 0 0 0 0 0 0 0 0 0 0 0 0 0 0 0 0 7936 7942 7936 7942 7936 7942 7949 7955 7961 7967 7979 7979 7985 7985 7985 7979 7973 7967 7961 7949 7936 7924 7906 7900 7894 7888 7888 7882 7888 7888 7900 7912 7930 7942 7961 7985 8016 8041 8054 8060 8066 0 0 0 0 0 0 0 0 0 0 0 0 0 0 0 6432 0 0 6440 6440 6436 6432 6428 6412 6412 6404 6396 6384 6373 6365 6353 6345 6341 6334 6326 6322 6318 6314 6303 6291 6272 6257 6242 6227 6208 6182 6164 6149 6138 6135 6131 6127 6116 6113 6106 6106 6102 6098 6091 0 0 0 0 0 0 0 0 0 0 0 0 0 0 0 0 0 0 0 7949 7936 7924 7912 7906 7894 7888 7882 7876 7876 7876 7876 7882 7888 7894 7906 7918 7936 7942 7955 7961 7979 7985 7985 0 0 0 0 0 0 0 0 0 0 0 0 0 0 0 0 7961 7967 0 0 0 0 0 0 0 7949 7942 7924 7918 7906 7894 7894 7894 7894 7906 7906 0 0 0 0 0 0 0 8047 8060 8066 8073 8073 8073 8066 8060 8054 8060 8054 8047 8047 8047 8047 8047 8047 8047 8047 8041 8041 8035 8035 8022 8022 8022 8029 8022 8029 8029 8035 8035 8041 8047 8047 8054 8066 8073 8085 8098 8110 8130 8142 8142 8142 8162 8155 8162 8162 8168 8162 8155 8142 8136 8130 8123 8110 8098 0 0 0 0 0 0 0 0 0 0 0 0 0 0 0 0 0 0 0 8029 8029 8022 8016 8010 0 0 0 8016 8022 8029 8041 8047 8054 0 0 0 0 0 0 0 8110 8117 8110 8104 8104 0 0 0 0 0 0 0 0 0 0 0 0 0 0 0 0 0 0 0 0 0 0 0 0 0 7729 7706 7672 7632 7576 7521 7451 7397 7324 7242 0 0 0 0 6927 6867 6831 6800 6768 6746 0 0 0 0 0 0 0 0 6424 6404 6392 6384 6384 6384 6384 0 0 0 0 0 0 0 0 0 0 0 0 0 0 0 0 0 0 0 0 0 0 0 0 0 0 0 0 0 0 0 0 0 0 0 0 0 0 0 0 0 0 0 0 0 0 0 0 0 0 0 0 0 0 0 0 0 0 0 0 0 0 0 0 0 0 0 0 0 0 5058 5051 5046 5041 5036 5031 5029 5026 5029 5029 0 0 0 0 0 0 0 0 0 0 0 0 0 4730 4730 4732 4734 4734 4734 0 0 0 0 0 0 0 0 0 0 0 0 0 0 0 0 0
0 0 0 0 0 0 0 0 0 0 0 0 0 0 0 0 0 8266 8246 8213 8187 8168 8136 8123 8117 8117 8123 8136 8142 8149 8162 8168 8175 8181 8181 8181 8168 8162 8155 8155 8149 8142 8136 8123 0 0 0 8104 8098 0 8110 8110 8117 8117 0 0 0 0 0 0 0 0 8016 8004 7998 7991 7991 7991 7991 7998 8004 8004 8004 8004 8010 0 0 0 0 0 0 0 0 8016 8022 8022 8022 0 0 0 0 0 0 0 0 0 0 7985 7979 7979 7985 0 0 0 0 8060 8073 8085 8091 8098 8104 8104 8110 8104 8110 8104 8104 8098 8104 8104 8104 8110 8110 8110 8123 8123 8117 8104 0 0 0 0 0 0 0 8016 0 0 0 7967 0 0 0 0 0 0 0 0 0 0 0 0 0 0 0 0 0 0 0 0 0 0 0 0 0 0 0 0 0 0 0 0 0 0 0 0 0 0 0 0 0 0 0 0 0 0 0 0 0 0 0 0 0 0 0 0 0 0 0 0 0 0 0 0 0 0 0 0 0 0 0 0 0 0 0 0 0 0 0 0 0 0 0 0 0 0 0 0 0 0 8149 8149 8136 8136 8130 0 0 0 0 0 0 0 8110 8110 0 0 0 0 0 0 0 0 8079 8073 8066 8054 8041 8035 0 0 0 0 0 0 0 0 7973 7973 7973 7979 7979 7979 7979 7979 7979 7985 7979 7985 7979 7973 7973 7967 7967 7967 7967 7967 7967 7967 7979 7979 7991 7998 8010 8004 8004 8010 8004 8010 8010 8010 8004 7991 7991 7985 7985 7985 7979 7973 0 0 0 0 0 0 0 0 0 0 0 0 0 0 0 0 0 7936 7930 0 7942 7936 7936 7949 7955 7961 7973 7973 7985 7985 7985 7991 7979 7979 7973 7961 7949 7930 7918 7906 7900 7888 7894 7888 7894 7900 7900 7906 7924 7942 7955 7967 7998 8029 8047 8066 8073 0 0 0 0 0 0 0 0 0 0 0 0 0 0 0 0 0 0 0 6436 6440 6436 6428 6420 6412 6404 6396 6388 6376 6365 6353 6345 6337 6334 6326 6322 6314 6314 6314 6307 6291 6280 6265 6242 6231 6208 6178 6156 6142 6135 6131 6127 6120 6116 6109 6102 6102 6098 6095 6084 6080 0 0 0 0 0 0 0 0 0 0 0 0 0 0 0 0 0 0 7930 7918 7912 7906 7900 7888 7882 7876 7876 7870 7870 7876 7876 7882 7888 7900 7912 7924 7936 7949 7967 7979 7979 7979 7985 7985 0 0 0 0 0 0 0 0 7924 7924 7930 7930 7924 7930 7930 7930 0 0 0 0 0 0 0 7936 7924 7906 7906 7894 7888 7882 7882 7876 7888 7888 7894 0 0 0 0 0 0 8010 8022 8029 8035 8047 8041 8041 8041 8041 8041 8041 8047 8047 8047 8054 8054 8047 8054 8054 8054 8047 8047 8035 8029 8035 8022 8022 8016 8022 8022 8029 8035 8041 8047 8054 8066 8066 8079 8091 8104 8123 8136 8155 8162 8168 8181 8187 8187 8187 8181 8181 8168 8149 8149 8136 8123 8117 8104 8098 0 0 0 8110 8117 0 0 0 0 0 0 0 8085 8079 8066 8054 8041 8029 8029 8016 8010 8010 8004 0 0 8010 8016 8029 8047 8060 8066 8073 0 0 0 0 0 0 8136 8136 8130 8130 8123 8117 8110 0 0 0 0 0 0 0 0 0 0 0 0 0 0 0 0 0 0 0 0 0 7816 7775 7740 7706 7683 7649 7610 0 0 0 7361 7298 0 7167 7113 7059 6983 6927 6867 0 6809 6777 6764 0 0 0 0 0 0 0 0 6416 6408 6392 6388 6392 6388 6392 6384 6384 0 0 0 0 0 0 0 0 0 0 0 0 0 0 0 0 0 0 0 0 0 0 0 0 0 0 0 0 0 0 0 0 0 0 0 0 0 0 0 0 0 0 0 0 0 0 0 0 0 0 0 0 0 0 0 0 0 0 0 0 0 0 0 0 0 0 0 0 5051 5051 5043 5038 5036 5034 5031 5029 5029 0 0 0 0 0 0 0 0 0 0 0 0 0 0 4732 4730 4730 4730 4730 4730 4730 4726 4726 4713 0 0 0 0 0 0 0 0 0 0 0 0 0
0 0 0 0 0 0 0 0 0 0 0 0 0 0 0 0 8319 8273 8240 8213 8194 8168 8136 8123 8117 8130 8136 8142 8155 8162 8168 8175 8181 8187 8187 8187 8175 8168 8162 8155 8149 8142 8136 8123 8110 8104 8104 8110 8104 8123 8123 8123 8123 8123 8130 8136 8136 0 0 0 0 8047 8035 8022 8010 8004 7998 7998 7998 7991 8004 7998 8004 8010 7998 0 0 0 0 0 0 0 8010 8022 8029 8029 8029 8022 8022 0 0 0 0 0 0 0 7979 7979 7979 7979 7985 7979 7991 8010 8041 8060 8079 8085 8104 8104 8117 8117 8117 8117 8110 8117 8117 8117 8123 8117 8117 8123 8123 8123 8123 8130 8123 8117 0 0 0 0 0 0 0 8004 7973 7949 7936 7930 7912 0 0 0 0 0 0 0 0 0 0 0 0 0 0 0 0 0 0 0 0 0 0 0 0 0 0 0 0 0 0 0 0 0 0 0 0 0 0 0 0 0 0 0 0 0 0 0 0 0 0 0 0 0 0 0 0 0 0 0 0 0 0 0 0 0 0 0 0 0 0 0 0 0 0 0 0 0 0 0 0 0 0 0 0 8123 0 8136 8142 8149 8149 8142 8142 8136 0 0 0 0 0 0 0 8091 8098 8098 0 0 0 0 0 0 0 0 0 8054 8054 8041 8029 8022 0 0 0 0 0 0 0 0 7998 7991 7991 7998 7991 7991 7991 7991 7991 7991 7991 7991 7985 7979 7973 7961 7967 7961 7961 7967 7967 7973 7979 7985 7991 7998 8010 8010 8004 8004 8004 8004 8010 8010 8004 7991 7985 7979 7979 7979 7973 7967 0 0 0 0 0 0 0 0 0 0 0 0 0 0 0 0 7930 7930 7924 0 7936 7936 7936 7942 7955 7967 7973 7979 7985 7985 7991 7991 7991 7979 7979 7967 7949 7936 7918 7900 7894 7888 7888 7888 7894 7900 7912 7924 7930 7942 7955 7973 8004 8022 8047 8066 8073 0 0 0 0 0 0 0 0 0 0 0 0 0 0 0 0 0 0 0 6436 6436 6428 6424 6420 6408 6400 6388 6380 6365 6357 6345 6337 6334 6326 6322 6314 6310 6310 6310 6307 6295 6276 6265 6249 6234 6212 6182 6156 6138 6127 6127 6124 6120 6109 6102 6098 6095 6088 6084 6073 6066 6063 0 0 0 0 0 0 0 0 0 0 0 0 0 0 0 0 0 7924 7912 7906 7894 7888 7882 7876 7876 7870 7864 7870 7870 7876 7876 7882 7888 7906 7924 0 0 7967 7973 0 0 0 0 0 0 0 0 0 0 0 0 7924 7918 7918 7918 7912 7912 7912 7906 0 0 0 0 0 0 0 7936 7924 7918 7912 7900 7882 7876 7876 7876 7882 7888 7894 7900 7918 0 0 0 7991 7991 7998 8004 8004 8010 8016 8010 8016 8016 8029 8029 8035 8035 8047 8047 8047 8047 8047 8054 8054 8047 8047 8041 8035 8029 8029 8029 8022 8022 8029 8029 8035 8041 8047 8060 8066 8073 8091 8104 8123 8136 8155 8168 8181 8187 8200 8194 8200 8200 8194 8187 8175 8162 8149 8136 8130 8117 8110 8098 8091 8098 8110 8110 8117 8117 8117 8117 8117 8110 8104 0 8085 8073 8054 8047 8029 8010 8004 8004 7991 7991 0 0 0 0 0 8047 8060 8073 8085 8091 8098 8110 0 0 0 0 8155 8149 8142 8136 8136 8123 8130 0 0 0 0 0 0 0 0 0 0 0 0 0 0 0 0 0 0 0 0 0 0 0 0 7677 7660 7621 0 0 0 7382 7340 7288 7217 7162 7113 7059 6983 0 0 0 0 0 0 0 0 0 0 0 0 0 0 0 6400 6392 6396 6392 6396 6392 6392 6388 6388 0 0 0 0 0 0 0 0 0 0 0 0 0 0 0 0 0 0 0 0 0 0 0 0 0 0 0 0 0 0 0 0 0 0 0 0 0 0 0 0 0 0 0 0 0 0 0 0 0 0 0 0 0 0 0 0 0 0 0 0 0 0 0 0 0 0 0 0 0 5043 5041 5036 5034 5029 5031 5031 0 0 0 0 0 0 0 0 0 0 0 0 0 0 4732 4730 4728 4728 4726 4726 4723 4721 4719 4702 4683 4666 4645 0 0 0 0 0 0 0 0 0 0
0 0 0 0 0 0 0 0 0 0 0 0 0 0 0 0 8312 8266 0 8220 8200 8162 8136 8123 8123 8130 8136 8142 8155 8168 8168 8181 8181 8187 8187 8187 8175 8175 8162 8155 8149 8136 8130 8123 8110 8110 8104 8117 8117 8130 8130 8130 8130 8136 8136 8136 8136 8130 8110 8098 8079 8073 8060 8041 8029 8022 8016 8016 8004 7998 7998 8004 8004 8004 8004 0 0 0 0 0 0 0 8016 8035 8035 8035 8035 8035 8041 0 0 0 0 0 0 0 0 7973 7973 7973 7979 7979 7991 8010 8035 8060 8073 8098 8104 8110 8123 8130 8130 8123 8130 8130 8123 8123 8123 8130 8130 8123 8123 8130 8123 8123 8123 8117 0 0 0 0 0 0 0 0 0 0 0 0 7870 7858 0 0 0 0 0 0 0 0 0 0 0 0 0 0 0 0 0 0 0 0 0 0 0 0 0 0 0 0 0 0 0 0 0 0 0 0 0 0 0 0 0 0 0 0 0 0 0 0 0 0 0 0 0 0 0 0 0 0 0 0 0 0 8016 8029 8029 8022 8029 8029 8029 8029 0 0 8022 0 0 0 0 0 0 0 0 0 0 8117 8123 8136 8136 8136 8142 8142 8136 8123 8117 8110 8098 8098 8085 8085 8079 8085 8085 8091 0 0 0 0 0 0 0 0 0 8029 8029 8016 8010 8010 8004 8004 0 0 0 0 0 0 8010 8010 8004 8010 8004 7998 8004 7998 7998 7998 7998 7991 7985 7979 0 0 7961 7967 7967 7967 7967 7973 7979 7991 7991 7998 8004 8004 7998 8004 8010 7998 8004 8004 7998 7985 7985 7979 7979 7973 7973 7967 0 0 0 0 0 0 0 0 0 0 0 0 0 0 0 7936 7936 7930 7930 7936 7936 7924 7930 7942 7949 7967 7973 7985 7985 7991 7991 7991 7991 7985 7979 7973 7961 7942 7918 7912 7906 7894 7900 7906 7912 7918 7930 7942 7949 7961 7973 7985 8004 8022 8035 8054 8060 0 0 0 0 0 0 0 0 0 0 0 0 0 0 0 0 0 0 0 6424 6416 6412 6408 6404 6396 6384 6376 6369 6353 6345 6334 6330 6326 6318 6314 6310 6307 6307 6303 6299 6295 6280 6265 6253 6238 6216 6182 6149 6135 6127 6120 6120 6113 6106 6098 6095 6088 6080 6073 6066 6059 0 0 0 0 0 0 0 0 0 0 0 0 0 0 0 0 0 0 7918 7918 7900 7894 7888 7876 7870 7870 7864 7864 7864 7870 7870 7876 7888 0 0 0 0 0 7967 0 0 0 0 0 0 0 0 0 0 0 0 0 7930 7918 7918 7918 7912 7912 7906 7906 0 0 0 0 0 0 0 7949 7936 7924 7918 7906 7894 7882 7888 7888 7888 7894 7906 7912 7924 0 0 7979 7998 7991 7985 7985 7998 7998 7998 7998 7998 8010 8010 8016 8022 8029 8041 8041 8047 8047 8047 8054 8054 8060 8054 8041 8041 8035 8029 8029 8029 8029 8022 8029 8035 8041 8054 8066 8073 8079 8098 8117 8130 8149 8168 8181 8187 8187 8207 8207 8200 8207 8194 8194 8181 8162 8149 8130 8123 8110 8110 8104 8098 8104 8123 8123 8123 8123 8123 0 0 0 0 0 8085 8073 8060 8041 8022 7991 7985 7985 7985 0 0 0 0 0 0 0 8066 8079 8091 8098 8110 8123 0 0 0 8162 8162 8162 8155 8149 8149 8142 8142 0 0 0 0 0 0 0 0 0 0 0 0 0 0 0 0 0 0 0 0 0 0 0 0 0 7632 7598 7554 7483 7413 7355 0 7278 7212 7152 7108 7050 6974 6913 6858 0 0 0 0 0 0 0 0 0 0 0 0 0 0 6400 6404 0 6400 6404 6400 6396 0 0 0 0 0 0 0 0 0 0 0 0 0 0 0 0 0 0 0 0 0 0 0 0 0 0 0 0 0 0 0 0 0 0 0 0 0 0 0 0 0 0 0 0 0 0 0 0 0 0 0 0 0 0 0 0 0 0 0 0 0 0 0 0 0 0 0 0 0 5048 5046 5043 5041 5036 5034 5034 5034 0 0 0 0 0 0 0 0 0 0 0 0 0 0 4732 4730 4728 4726 4723 4723 4723 4719 4715 4693 4672 4655 0 4612 4595 4585 4575 4571 4569 4567 0 0 0
0 0 0 0 0 0 0 0 0 0 0 0 0 0 0 8353 8319 8286 8266 8240 8213 8175 8136 8123 8123 8130 8136 8149 8155 8162 8175 8181 8181 8187 8181 8181 8175 8168 8162 8149 8142 8136 8130 8117 0 0 8117 8123 8123 8136 8136 8136 8136 8136 8142 8142 8142 8136 8130 8117 8098 8085 8073 8066 8054 8041 8035 8022 8016 8010 8004 8010 8004 8004 8004 8010 0 0 0 0 0 0 8029 8041 8041 8041 8041 8041 8047 0 0 0 0 0 0 0 0 0 0 0 7973 7973 7991 8004 8035 8054 8073 0 8110 8110 8136 8142 8142 8142 8142 8142 8142 8142 8142 8136 8136 8130 8130 8130 8123 8123 8117 8117 0 0 0 0 0 0 0 0 0 0 0 7870 7852 7846 0 0 0 0 0 0 0 0 0 0 0 0 0 0 0 0 0 0 0 0 0 0 0 0 0 0 0 0 0 0 0 0 0 0 0 0 0 0 0 0 0 0 0 0 0 0 0 0 0 0 0 0 0 0 0 0 0 0 0 0 0 8022 8022 8029 8035 8029 8029 8035 8035 8029 8029 8022 8022 8016 0 0 0 0 0 0 0 0 8098 8110 8110 8117 8123 8130 8136 8130 8130 8117 8110 8104 8091 8085 8073 8079 8073 8073 8073 8066 0 0 0 0 0 0 0 0 0 8004 8004 8004 7998 7998 7998 7998 7991 7998 0 0 0 8022 8016 8016 8016 8016 8010 8004 8004 7998 8004 8004 7998 7998 7985 0 0 0 7967 7967 7967 7967 7967 7973 7985 7985 7991 7998 8004 8004 8004 8004 8010 8004 8004 8004 8004 7991 7985 7979 7973 7967 7973 7967 0 0 0 0 0 0 0 0 0 0 0 0 0 0 0 0 7936 7936 7936 0 0 0 0 0 0 7967 7973 7985 7991 7991 7998 7991 7991 7991 7985 7979 7967 7942 7930 7912 7906 7912 7918 7924 7936 7949 7949 7961 7973 7979 7998 7998 8010 8022 8029 8047 0 0 0 0 0 0 0 0 0 0 0 0 0 0 0 0 0 0 6400 6400 6400 6400 6396 6392 6392 6380 6369 6361 6357 6341 6334 6326 6322 6314 6310 6307 6303 6299 6299 6299 6295 6291 6280 6268 6253 6234 0 0 0 6127 6120 6116 6109 6106 6098 6088 6084 6077 6070 6063 6052 6041 6038 0 0 0 0 0 0 0 0 0 0 0 0 0 0 0 0 7936 7924 7918 7906 7900 7894 7882 7876 7870 7864 7864 7870 7870 7870 7876 7888 0 0 0 0 0 0 0 0 0 0 0 0 0 0 0 0 0 7955 7936 7930 7924 7918 7918 7912 7912 7912 7912 7918 0 0 0 0 0 7961 7955 7942 7936 7930 7918 7900 7894 7894 7894 7900 7906 7912 7918 7936 7955 7973 7991 7998 7998 7998 7998 7998 8004 8004 7998 7998 7998 8004 8010 8022 8029 8035 8041 8047 8047 8047 8060 8060 8060 8054 8047 8047 8041 8029 8029 8029 8029 8022 8029 8035 8047 8054 8066 8073 8091 8104 8123 8142 8162 8175 8194 8200 8207 8227 8220 8207 8207 8194 8194 8175 8162 8149 8130 8117 8117 8117 8117 8117 8123 8130 8136 8136 8142 8142 8136 8130 8136 8130 8110 8098 8079 8054 8029 8010 7985 7979 7973 7973 7973 0 0 0 0 0 0 8079 8091 8104 8110 8117 8136 8149 8155 8162 8162 8155 8155 8149 8136 8136 8136 8130 0 0 0 0 0 0 0 0 0 0 0 0 0 0 0 0 0 0 0 0 0 0 0 0 0 0 7565 7510 7456 0 0 7314 7273 7212 7142 0 0 0 0 0 0 6791 6760 0 0 0 0 0 0 0 0 0 0 0 6432 6412 6404 6408 6404 6400 6392 0 0 0 0 0 0 0 0 0 0 0 0 0 0 0 0 0 0 0 0 0 0 0 0 0 0 0 0 0 0 0 0 0 0 0 0 0 0 0 0 0 0 0 0 0 0 0 0 0 0 0 0 0 0 0 0 0 0 0 0 0 0 0 0 0 0 0 0 0 0 0 0 0 0 0 0 0 0 0 0 0 0 0 0 0 0 0 0 0 0 0 0 4730 4728 4728 4726 4723 4721 4719 4713 4691 4668 4651 4632 4612 4591 4581 4575 4569 4567 4563 0 0 0
0 0 0 0 0 0 0 0 0 0 0 0 0 0 0 8366 8333 8306 8286 8259 8227 8187 8149 8130 8130 8136 8142 8149 8162 8168 8175 8181 8181 8187 8181 8181 8175 8168 8155 8149 8142 8136 8123 8117 8110 8117 8117 8123 8123 8130 8136 8136 8136 8136 8142 8142 8142 8136 8136 8117 8098 8098 8085 8073 8066 8054 8047 8041 8022 8016 8016 8010 8010 8004 8004 8004 8004 0 0 0 0 0 0 0 8047 8041 8047 8047 8054 0 0 0 0 0 0 0 0 0 0 0 0 0 0 0 0 0 0 0 0 0 0 8149 8162 8155 8155 8155 8162 8155 8155 8149 8149 8142 8136 8130 8123 8123 8117 8104 8098 0 0 0 0 0 0 0 0 0 7858 7864 7852 7846 0 0 0 7852 7858 0 0 0 0 0 0 0 0 0 0 0 0 0 0 0 0 0 0 0 0 0 0 0 0 0 0 0 0 0 0 0 0 0 0 0 0 0 0 0 0 0 0 0 0 0 0 0 0 0 0 0 0 0 0 0 0 8029 8035 8035 8035 8035 8035 8035 8035 8029 8022 8016 8016 8016 8016 0 0 0 0 0 0 0 8091 8098 8104 8110 8117 8123 8123 8123 8123 8110 8098 8098 8085 8073 8066 8066 8060 8054 8047 8054 0 0 0 0 0 0 0 0 0 7991 7991 7991 7991 7991 7991 7991 7985 0 0 0 0 8022 8022 8022 8022 8022 8010 8004 8004 8010 8004 8004 7998 7998 0 0 0 0 0 7967 7961 7967 7973 7973 7985 7985 7991 7998 8004 7998 8004 8004 8004 8004 8004 8004 7991 7985 7979 7973 7973 7973 7967 7961 7961 0 0 0 0 0 0 0 0 0 0 0 0 0 0 7949 7949 7949 7949 0 0 0 0 0 0 0 7967 7979 7985 7985 7985 7991 7991 7991 7991 0 0 0 0 0 0 7924 7936 7949 7961 7973 7985 7998 8004 8010 8022 8035 8029 8029 8022 0 0 0 0 0 0 0 0 0 0 0 0 0 0 0 0 0 0 0 0 6376 6376 6376 6376 6376 6376 6365 6353 6345 6341 6330 6322 6314 6310 6307 6303 6303 6299 6291 6295 6295 6291 6287 6280 6268 6253 0 0 0 0 6127 6120 6109 6106 6098 6088 6080 6073 6063 6056 6041 6031 0 0 0 0 0 0 0 0 0 0 0 0 0 0 0 0 0 0 7942 7930 7918 7912 7906 7894 7882 7876 7876 7870 7870 7870 7876 7876 7882 0 0 0 0 0 0 0 0 0 0 0 0 0 8016 8016 8004 7991 7979 7967 7961 7942 7936 7924 7924 7924 7912 7918 7924 7930 7930 7942 7961 7967 7967 7973 7961 7955 7942 7942 7930 7924 7912 7906 7912 7912 7924 7924 7936 7942 7961 7973 7991 7998 8004 7998 7998 7998 8004 8004 7998 7998 7991 7998 8004 8010 8016 8022 8029 8035 8041 8054 8060 8066 8060 8060 8047 8047 8041 8041 8029 8029 8029 8022 8022 8035 8047 8060 8073 8091 8104 8123 8136 8149 8168 8187 8200 8213 8213 8220 8213 8200 8194 8187 8181 8168 0 0 0 0 0 0 8110 0 0 0 0 0 0 0 0 0 0 0 0 0 0 0 0 0 0 7967 7961 7961 7967 0 0 0 0 0 0 8091 8098 8110 8123 8130 8136 8149 8155 8155 8162 8155 8149 8142 8136 8130 8123 0 0 0 0 0 0 0 0 0 0 0 0 0 0 0 0 0 0 0 0 0 0 0 0 0 0 0 0 7494 7435 0 0 0 7257 7192 7122 0 0 6936 0 0 6804 6777 0 0 0 0 0 0 0 0 0 0 0 0 0 0 0 0 0 0 6392 6384 0 0 0 0 0 0 0 0 0 0 0 0 0 0 0 0 0 0 0 0 0 0 0 0 0 0 0 0 0 0 0 0 0 0 0 0 0 0 0 0 0 0 0 0 0 0 0 0 0 0 0 0 0 0 0 0 0 0 0 0 0 0 0 0 0 0 0 0 0 0 0 0 0 0 0 0 0 0 0 0 0 0 0 0 0 0 0 0 0 0 0 4732 4730 4728 4726 0 0 0 0 0 0 0 0 4608 4591 4581 4571 4569 4565 4565 4561 0 0
0 0 0 0 0 0 0 0 0 0 0 0 0 0 0 8387 8353 8326 8299 8279 8253 8213 8175 8149 8142 8142 8149 8155 8162 8175 8181 8181 8187 8187 8187 8181 8175 8168 8162 8142 8136 8130 8130 8123 8117 8117 8117 8123 8130 8136 8136 8136 8136 8142 8142 8142 8142 8136 8136 8123 8104 8098 8091 8085 8066 0 0 0 0 0 0 8010 8010 8010 8010 8004 8004 0 0 0 0 0 0 0 8047 8047 8047 8054 0 0 0 0 0 0 0 0 0 0 0 0 0 0 0 0 0 0 0 0 0 0 0 8155 8155 8168 8168 8168 8168 8168 8162 8162 8155 8149 8136 8130 8123 8117 8110 8091 8085 0 0 0 0 0 0 0 0 0 0 0 7858 7852 7846 7846 7846 7858 7870 7870 0 0 0 0 0 0 0 0 0 0 0 0 0 0 0 0 0 0 0 0 0 0 0 0 0 0 0 0 0 0 0 0 0 0 0 0 0 0 0 0 0 0 0 0 0 0 0 0 0 0 0 0 8010 0 0 8029 8035 8041 8035 8035 8035 8035 8029 8022 8022 8016 8016 8010 8010 8016 8016 0 0 0 8054 8073 8085 8091 8091 8104 8110 8117 8123 8123 8117 8110 8098 8091 8079 8066 8054 8054 8054 8041 8047 8041 8035 8035 0 0 0 0 0 0 7985 7985 7985 7985 7979 7979 7979 7985 7979 7998 0 0 8022 8022 8029 8029 8029 8029 8016 8010 8004 8010 8010 8004 7998 0 0 0 0 0 0 0 7961 7967 7967 7973 7979 7979 7985 7985 7998 7991 7991 7998 7998 7991 7991 0 0 0 0 0 0 7973 7967 7967 0 0 0 0 0 0 0 0 0 0 0 0 7936 7955 7961 7955 7955 7955 0 0 0 0 0 0 0 0 7961 7973 7979 7985 7985 7985 7991 7985 0 0 0 0 0 0 0 0 0 7985 7991 8004 8016 8022 8035 0 0 0 0 0 0 0 0 0 0 0 0 0 0 0 0 0 0 0 0 0 0 0 0 0 0 6357 6357 6357 6353 6353 6353 6345 6337 6330 6326 6318 6310 6303 6299 6299 6295 6291 6287 6284 6287 6287 6284 6280 6272 6265 0 0 0 0 6149 6127 6116 6109 6102 6095 6080 6070 6059 6045 6038 6024 6010 5999 5989 5986 0 0 0 0 0 0 0 0 0 0 0 0 0 0 7955 7942 7936 7930 7912 7906 7894 7894 7882 7876 7876 7870 7876 7882 7882 7894 7900 0 0 0 0 0 8004 8010 0 0 0 8022 8022 8029 8022 8016 8010 7998 7979 7973 7961 7942 7942 7930 7924 7930 7930 7936 7942 7955 7961 7979 7979 7979 7985 7979 7973 7967 7961 7955 7936 7930 7924 7924 7930 7930 7942 7942 7955 7961 7979 7998 8004 8010 8010 8004 8004 8010 8010 8004 7998 7998 8004 8004 8010 8016 8029 8029 8035 8047 8047 8054 8060 8054 8054 8054 8047 8041 8035 8035 8029 8029 8029 8029 8035 8054 8066 8085 8098 8117 8130 8149 8162 8181 8194 8207 8207 8213 8213 8207 8187 8181 8175 0 0 0 0 0 0 0 0 8104 0 0 0 0 0 0 0 0 0 0 0 0 0 0 0 0 0 7949 7949 7949 7955 7961 0 0 0 0 0 8091 8104 8110 8123 8130 8142 8142 8155 8162 8162 8162 8155 8149 8136 8130 8123 0 0 0 0 0 0 0 0 0 0 0 0 0 0 0 0 0 0 0 0 0 0 0 0 0 0 0 0 0 0 0 0 0 0 7268 7177 0 0 0 6890 6831 6791 6764 6746 6724 0 0 0 0 0 0 0 0 0 0 0 0 0 0 0 0 0 0 0 0 0 0 0 0 0 0 0 0 0 0 0 0 0 0 0 0 0 0 0 0 0 0 0 0 0 0 0 0 0 0 0 0 0 0 0 0 0 0 0 0 0 0 0 0 0 0 0 0 0 0 0 0 0 0 0 0 0 0 0 0 0 0 0 0 0 0 0 0 0 0 0 0 0 0 0 0 0 0 0 0 0 0 0 0 0 0 0 0 0 0 0 0 0 0 0 0 0 0 0 0 0 0 4606 4591 4581 4573 4569 4567 4563 4561 0 0
0 0 0 0 0 0 0 0 0 0 0 0 0 0 0 8414 8380 8353 8326 0 8266 8233 8194 8168 8155 8162 8162 8168 8175 8181 8181 8187 8187 8187 8181 8187 8175 8175 8162 8149 8136 8130 8130 8123 8123 8117 8117 8117 8117 8123 8123 8136 8130 8136 8142 8142 8149 8142 8136 8123 8110 8098 8085 8079 8073 0 0 0 0 0 0 8016 8016 8016 8016 8016 8016 8016 0 0 0 0 0 8041 8047 8047 8047 8054 0 0 0 0 0 0 0 0 0 0 0 0 0 0 0 0 0 0 0 0 0 0 0 0 8168 8175 8175 8175 8175 8175 8175 8168 8162 8155 8142 8136 8123 8110 8104 8091 8073 0 0 0 0 0 0 0 0 0 0 7864 7858 7858 7846 7846 7852 7858 7864 7876 7876 0 0 0 0 0 0 0 0 0 0 0 0 0 0 0 0 0 0 0 0 0 0 0 0 0 0 0 0 0 0 0 0 0 0 0 0 0 0 0 0 0 0 0 0 0 0 0 0 0 0 8004 8010 8016 0 8022 8035 8041 8035 8035 8035 8029 8029 8029 8029 8022 8016 8016 8016 8010 8016 8010 8022 8035 8054 8060 8073 8079 8085 8091 8104 8104 8117 8117 8104 8098 8085 8085 8066 8060 8054 8047 8041 8035 8035 8029 8022 8016 8004 7998 7985 7979 7973 7979 7979 7979 7979 7979 7979 7985 7979 7985 7985 7991 8004 8016 8022 8029 8035 8035 8035 8035 8022 8016 8016 8016 8010 8010 8010 0 0 0 0 0 0 0 7979 7973 7973 7973 7973 7979 7979 7985 7985 7979 7991 7991 7991 7991 0 0 0 0 0 0 0 7973 7973 7973 0 0 0 0 0 0 0 0 0 0 0 0 0 7973 7973 7973 7973 7973 0 0 0 0 0 0 0 0 0 7973 7979 7979 7979 7985 7985 7985 0 0 0 0 0 0 0 0 8004 8022 8041 8041 8047 8054 8073 8079 0 0 0 0 0 0 0 0 0 0 0 0 0 0 0 0 0 0 0 0 0 0 0 0 0 6345 6341 6341 6337 6337 6337 6334 6326 6318 6310 6307 6303 6295 6291 6287 6287 6284 6280 6276 6280 6276 6272 6272 6265 6253 0 0 0 0 6153 6127 6113 6102 6098 6088 6073 6056 6045 6031 6020 6006 0 5986 0 5972 0 0 0 0 0 0 0 0 0 0 0 0 0 0 0 7949 7942 7936 7924 7912 7906 7894 7894 7888 7882 7882 7888 7888 7894 7900 7918 7942 7967 7998 8004 8022 8022 8022 8022 8029 8029 8022 8029 8022 8029 8022 8016 8004 7998 7979 7973 7961 7955 7949 7942 7949 7942 7955 7961 7967 7979 7985 7991 7991 7991 7985 7985 7979 7973 7961 7955 7942 7936 7936 7936 7949 7955 7955 7967 7973 7985 7998 8004 8010 8010 8010 8016 8016 8016 8016 8016 8004 8010 8010 8010 8016 8022 8029 8035 8041 8047 8054 8054 8054 8054 8047 8041 8041 8035 8029 8029 8029 8022 8029 8041 8054 8073 8085 8104 8117 8130 8142 8155 8175 8181 8194 8194 8194 8194 8187 8168 8162 8155 8149 8142 0 0 0 0 0 8091 8091 8091 0 0 0 0 8073 8079 8079 8073 0 0 0 0 0 0 0 0 0 7936 7942 7955 7967 7979 7991 8029 8054 8091 8104 8117 8130 8136 8149 8149 8155 8162 8162 8168 8162 8155 8149 8136 8123 0 0 0 0 0 0 0 0 0 0 0 0 0 0 0 0 0 0 0 0 0 0 0 0 0 0 0 0 0 0 0 0 0 0 0 0 0 0 0 0 0 6786 6755 6742 6729 6716 6711 0 6707 6703 6698 6698 6703 0 0 0 0 0 0 0 0 0 0 0 0 0 0 0 0 0 0 0 0 0 0 0 0 0 0 0 0 0 0 0 0 0 0 0 0 0 0 0 0 0 0 0 0 0 0 0 0 0 0 0 0 0 0 0 0 0 0 0 0 0 0 0 0 0 0 0 0 0 0 0 0 0 0 0 0 0 0 0 0 0 0 0 0 0 0 0 0 0 0 0 0 0 0 0 0 0 0 0 0 0 0 0 0 0 0 0 0 0 0 0 0 0 0 0 4595 4583 4579 4573 4571 4569 4565 4563 4561 0
0 0 0 0 0 0 0 0 0 0 0 0 0 0 0 8421 8387 8359 8339 0 0 8259 8220 8187 8175 8168 8175 8181 8187 8187 8194 8194 8194 8187 8187 8187 8181 8168 8155 8149 0 0 8136 8123 8123 8123 8117 8117 8110 0 0 0 0 0 0 8155 8162 8162 8155 8123 8104 8098 8079 8066 8066 0 0 0 0 0 0 8035 8041 8041 8041 8041 8041 8047 8047 8047 8041 8041 8047 8054 8054 8054 8047 0 0 0 0 0 0 0 0 0 0 0 0 0 0 0 0 0 0 0 0 0 0 0 0 0 8181 8187 8187 8187 8187 8181 8181 8175 8168 8162 8149 8136 8123 8110 8098 8085 8066 8047 0 0 0 0 0 0 0 7882 7870 7864 7864 7864 7852 7852 7864 7864 7870 7876 7882 0 0 0 0 0 0 0 0 0 0 0 0 0 0 0 0 0 0 0 0 0 0 0 0 0 0 0 0 0 0 0 0 0 0 0 0 0 0 0 0 0 0 0 0 0 0 0 0 0 0 0 8004 0 0 8029 8041 8041 8041 8035 8035 8035 8035 8029 8029 8022 8022 8016 8016 8010 8010 8010 8016 8035 8041 8054 8066 8066 8073 8079 8091 8098 8098 8104 0 0 0 0 8054 8047 8035 8029 8029 8022 8010 8010 8010 8004 7998 7985 7973 7973 7973 7973 7973 7973 7973 7979 7973 7979 7979 7979 7985 7991 8004 8016 8016 8029 8035 0 0 0 0 0 0 8010 8010 8004 8004 0 0 0 0 0 0 0 0 7985 7979 7973 7973 7973 7979 7979 7979 7985 7979 7985 0 7985 0 0 0 0 0 0 0 0 0 0 0 0 0 0 0 0 0 0 0 0 0 0 7985 7991 7991 7991 7985 7985 0 0 0 0 0 0 0 0 0 7973 7979 7979 7979 7979 7979 7979 0 0 0 0 0 0 0 0 8047 8060 8073 8073 8079 8079 8091 8098 0 0 0 0 0 0 0 0 0 0 0 0 0 0 0 0 0 0 0 0 0 0 0 0 6326 6326 6326 6326 6322 6322 6322 6318 6314 6307 6307 6295 6291 6287 6287 6284 6284 6280 6276 6276 6276 6272 6265 6261 6257 6246 6227 6212 6193 6167 6149 6127 6116 6102 6091 6084 6063 6045 6034 6017 6010 5996 5986 5972 5968 5965 0 0 0 0 0 0 0 0 0 0 0 0 0 0 0 0 0 0 0 7918 7912 7906 7900 7900 7894 7900 7900 7900 7912 7924 7936 7967 7998 8022 8029 8035 8035 8029 8035 8041 8035 8035 8035 8029 8029 8029 8016 8016 8010 7998 7985 7985 7973 7967 7961 7967 7961 7967 7973 7979 7991 7998 8004 8004 8010 8004 7991 7991 7985 7973 7967 7967 7961 7955 7961 7961 7967 7973 7979 7985 7991 7998 8010 8022 8016 8022 8029 8035 8029 8029 8022 8022 8010 8022 8029 8022 8029 8029 8035 8041 8047 8047 8054 8047 8047 8035 8035 8035 8035 8029 8029 0 0 0 0 0 8066 8079 8098 8104 8117 8130 8142 8149 8168 8168 8175 8175 8175 8162 8149 8142 8142 8136 8123 0 0 0 0 0 8079 8079 8073 8073 8073 8073 8060 8054 8047 8047 8041 8041 0 0 0 0 0 0 0 0 7930 7949 7967 7979 7991 8010 8035 8066 8104 8117 8123 8136 8142 8149 8155 8162 8162 8168 8162 8162 8155 8149 8123 8110 8104 8098 8085 8066 0 0 0 0 0 0 0 0 0 0 0 0 0 0 0 0 0 0 0 0 0 0 0 0 0 0 0 0 0 0 0 0 0 0 0 0 0 6742 6720 6716 6716 6707 6707 6703 6698 6703 6694 6698 0 0 0 0 0 0 0 0 0 0 0 0 0 0 0 0 0 6201 0 0 0 0 0 0 0 0 0 0 0 0 0 0 0 0 0 0 0 0 0 0 0 0 0 0 0 0 0 0 0 0 0 0 0 0 0 0 0 0 0 0 0 0 0 0 0 0 0 0 0 0 0 0 0 0 0 0 0 0 0 0 0 0 0 0 0 0 0 0 0 0 0 0 0 0 0 0 0 0 0 0 0 0 0 0 0 0 0 0 0 0 0 0 0 0 0 0 0 4585 4579 4577 4575 4573 4569 4569 4565 4563
0 0 0 0 0 0 0 0 0 0 0 0 0 0 0 0 8400 8380 8359 8333 8312 8279 8240 8213 8187 8187 8187 8181 8187 8194 8200 8194 8194 8187 8181 8181 8175 0 0 0 0 0 0 8123 0 0 0 0 8104 0 0 0 0 0 0 0 0 0 0 0 0 8079 8060 8054 8047 0 0 0 0 0 0 0 8066 8066 8066 8066 8066 8066 8066 8066 8054 8054 8054 8060 0 0 0 0 0 0 0 0 0 0 0 0 0 0 0 0 0 0 0 0 0 0 0 0 0 0 0 0 8194 8194 8194 8187 8187 8181 8181 8175 8168 8155 8142 8130 8110 8098 8085 8073 8047 8035 8016 8010 7991 0 0 0 7918 7894 7882 7876 7870 7870 7864 7864 7870 7876 7882 7888 7894 0 0 0 0 0 0 0 0 0 0 0 0 0 0 0 0 0 0 0 0 0 8041 8041 8041 8035 8035 8029 8029 0 0 8010 0 0 0 0 0 0 0 0 0 0 0 0 0 0 0 0 0 0 7985 7991 7998 8010 8016 8022 8035 8041 8035 8035 8035 8035 8035 8029 8022 8022 8016 8016 8016 8010 8010 8010 8016 8022 8029 8035 8047 8054 8054 8060 8073 8079 8085 0 0 0 0 0 8035 8022 8016 8016 8004 8004 7998 7998 7991 7998 7985 7979 7973 7973 7967 7973 7973 7967 7973 7973 7979 7979 7979 7979 7979 7991 8004 8010 8016 8029 8035 0 0 0 0 0 0 8004 8004 8004 8004 0 0 0 0 0 0 0 0 7985 7979 0 0 0 7973 7973 7979 7979 7979 7979 7979 7985 0 0 0 0 0 0 0 0 0 0 0 0 0 0 0 0 0 0 0 0 0 0 0 0 7998 7991 7985 7985 0 0 0 0 0 0 0 0 0 7967 7973 7973 7967 7967 7967 7967 0 0 0 0 0 0 0 0 8085 8098 8104 8104 8098 8104 8110 8117 0 0 0 0 0 0 0 0 0 0 0 0 0 0 0 0 0 0 0 0 0 0 0 6314 6310 6310 6310 6307 6307 6307 6307 6307 6303 6299 6299 6291 6291 6287 6284 6284 6280 6276 6272 6268 6268 6265 6253 6253 6242 6234 6216 6201 6186 6164 6149 6131 6116 6102 6091 6077 6059 6038 6027 6006 6003 5986 5979 5968 5965 5958 0 0 0 0 0 0 0 0 0 0 0 0 0 0 0 0 0 0 0 0 7930 7924 7918 7918 7918 7924 7918 7924 7936 7942 7967 7985 8016 8035 8041 8041 8047 8041 8041 8041 8041 8041 8035 8035 8035 8035 8035 8029 8029 8016 8016 8004 7998 7991 7985 7979 7979 7979 7985 7985 7998 8004 8004 7998 8004 8004 7998 7998 7991 7985 7979 7979 7979 7979 7985 7985 7985 7985 7991 7991 7998 8010 8022 8029 8029 8029 8041 8041 8041 8035 8035 8029 8022 8029 8029 0 0 8035 8041 8041 8041 8047 8047 8041 8035 8041 8035 8035 8029 8029 0 0 0 0 0 0 0 8073 8091 8098 8110 8110 8117 8130 8142 8149 8149 8149 8149 8142 8130 8123 8123 8117 8104 0 0 0 0 8060 8060 8060 8054 8054 8054 8047 8035 8029 8022 8022 8010 8004 0 0 0 0 0 0 0 0 7924 7942 7967 7985 8004 8022 8054 8085 8117 8123 8130 8142 8155 8155 8162 8168 8162 8168 8162 8162 8155 8136 8110 8098 8091 8079 8066 8054 0 0 0 0 0 0 0 0 0 0 0 0 0 0 0 0 0 0 0 0 0 0 0 0 0 0 0 0 0 0 0 0 0 0 0 0 0 6738 6724 6716 6716 6707 6707 6703 6698 6698 6694 6698 0 0 0 0 0 0 0 0 0 0 0 0 0 0 0 0 6197 0 0 0 0 0 0 0 0 0 0 0 0 0 0 0 0 0 0 0 0 0 0 0 0 0 0 0 0 0 0 0 0 0 0 0 0 0 0 0 0 0 0 0 0 0 0 0 0 0 0 0 0 0 0 0 0 0 0 0 0 0 0 0 0 0 0 0 0 0 0 0 0 0 0 0 0 0 0 0 0 0 0 0 0 0 0 0 0 0 0 0 0 0 0 0 0 0 0 0 0 4589 4587 4585 4583 4579 4577 4575 4571 4569
0 0 0 0 0 0 0 0 0 0 0 0 0 0 0 0 8414 8400 8380 8353 8326 8306 8266 8233 8207 8194 8194 8194 8194 8194 8200 8194 8187 8187 8181 8175 8175 0 0 0 0 0 0 8110 0 0 0 8085 8079 0 0 0 0 0 0 0 0 0 0 0 0 0 8041 8035 8029 8029 8029 0 0 0 0 0 8098 8098 8091 8091 8091 8091 8098 8091 8079 8073 8073 0 0 0 0 0 0 0 0 0 0 0 0 0 0 0 0 0 0 0 0 0 0 0 0 0 0 0 0 0 8200 8200 8194 8187 8181 8181 8175 8162 8155 8149 8136 8117 8098 8085 8079 8060 8041 8022 8010 8004 7985 7973 7961 7942 7924 7900 7888 7876 7876 7876 7876 7876 7882 7894 7900 7906 7912 7918 0 0 0 0 0 0 0 0 0 0 0 0 0 0 0 0 0 0 0 0 8073 8066 8060 8060 8054 8047 8041 8035 8022 8016 0 0 0 0 0 0 0 0 0 0 0 0 0 0 0 0 7967 7985 7991 7998 8004 8010 8022 8029 8035 8035 8041 8041 8035 8035 8029 8029 8029 8022 8022 8016 8010 8016 8010 8010 8010 8010 8022 8035 0 8041 8047 8047 8054 8060 0 0 0 0 0 0 0 7998 7991 7991 7985 7985 7985 7979 7985 7985 7979 7973 7967 7967 7967 7967 7973 7973 7967 7973 7979 7979 7979 7979 7979 7991 8004 8010 8016 8029 8041 8041 0 0 0 8016 8010 8004 7998 8004 8004 8004 8004 8010 8004 8010 8004 8010 8004 7998 7985 7979 7973 7967 7967 7973 7973 7973 7979 7973 7979 7979 7979 0 0 0 0 0 0 0 0 0 0 0 0 0 0 0 0 0 0 0 0 0 0 0 7998 7998 7991 7991 7991 0 0 0 0 0 0 0 0 7967 7973 7967 7967 7967 7961 7961 7967 0 0 0 0 0 0 0 8110 8117 8117 8117 8117 8117 8117 8123 0 0 0 0 0 0 0 0 0 0 0 0 0 0 0 0 0 0 0 0 0 0 0 0 6307 6303 6303 6299 6295 6299 6299 6299 6295 6291 6295 6291 6287 6284 6284 6280 6280 6276 6268 6268 6261 6257 6249 6242 6231 6219 6204 6190 6178 6160 6149 6131 6116 6098 6091 6073 6052 6034 6020 6006 5996 5982 5975 5968 5961 5958 0 0 0 0 0 0 0 0 0 7942 0 0 0 0 0 0 0 0 0 0 0 7942 7930 7930 7936 7936 7930 7942 7949 7967 7979 8004 8022 8035 8041 8041 8047 8047 8047 8054 8047 8047 8047 8047 8054 8047 8054 8054 8047 8047 8041 8035 8029 8022 8016 8010 8010 8004 8010 8010 8010 8016 8016 8004 8004 8004 7998 7998 7998 7998 7991 7998 7998 7998 8004 8004 8004 7998 7998 8004 8010 8016 8029 8041 8041 8041 8054 8054 8060 8054 8047 8041 8029 8035 0 0 0 0 0 0 0 8047 8041 8041 8035 8035 8029 8035 8035 8029 8029 0 0 0 0 0 0 8066 8085 8091 8098 8104 8110 8117 8123 8130 8130 8123 8123 8117 8110 8098 8091 8091 8085 8073 0 0 0 0 8054 8047 8041 8041 8035 8029 8022 8016 8010 8004 7998 7991 0 0 0 0 0 0 0 0 7930 7949 7973 7991 8010 8035 8066 8091 8123 8136 8149 8149 8162 8168 8168 8168 8162 8162 8162 8155 0 0 0 0 0 0 8054 8041 0 0 0 0 0 0 0 0 0 0 0 0 0 0 0 0 0 0 0 0 0 0 0 0 0 0 0 0 0 0 0 0 0 0 0 0 6786 6751 6733 6716 6716 6711 6703 6703 6698 6698 6694 6698 0 0 0 0 0 0 0 0 0 0 6223 6219 6216 6212 6204 6197 6197 6193 6190 0 0 0 0 0 0 0 0 0 0 0 0 0 0 0 0 0 0 0 0 0 0 0 0 0 0 0 0 0 0 5531 5525 5519 0 0 0 0 0 0 0 0 0 0 0 0 0 0 0 0 0 0 0 0 0 0 0 0 0 0 0 0 0 0 0 0 0 0 0 0 0 0 0 0 0 0 0 0 0 0 0 0 0 0 0 0 0 0 0 0 0 0 0 0 0 0 0 0 0 4604 4600 4595 4593 4591 4585 4581 4579 4575
0 0 0 0 0 0 0 0 0 0 0 0 0 0 0 0 0 8421 8393 8373 0 0 8286 8253 8220 8207 8200 8194 8194 8194 8200 8187 8187 8181 8181 0 0 0 0 0 0 0 0 8110 8098 8091 8085 8079 8066 8054 8047 8047 0 0 0 0 0 0 0 0 0 0 8029 8022 8029 8029 8035 0 0 0 0 0 8117 8117 8117 8110 8110 8110 8104 8104 8098 8085 8079 0 0 0 0 0 0 0 0 0 0 0 0 0 0 0 0 0 0 0 0 0 0 0 0 0 0 0 0 0 8200 8207 8194 8181 8175 8168 8155 8149 8142 8136 8117 8104 8085 8079 8066 8047 8022 8016 8004 7991 7979 7967 7961 7942 7930 7912 7900 7888 7894 7894 7894 7894 7900 7912 7918 7930 7942 0 0 0 0 0 0 0 0 0 0 0 0 0 0 0 0 0 0 0 0 0 8085 8085 8079 8079 8079 8066 8054 8047 8035 8022 8010 0 0 0 0 0 7961 0 0 0 7955 0 0 0 0 0 7979 7979 7991 7998 8004 8016 8022 8022 8035 8041 8041 8041 8035 8035 8035 8029 8029 8016 8022 8016 8010 8016 8016 8010 8010 8010 0 8022 8022 8029 8029 8029 8035 8041 0 0 0 0 0 0 0 7967 7973 7973 7979 7973 7973 7973 7979 7979 7973 7973 7973 7967 7967 7967 7973 7973 7973 7979 7979 7979 7979 7973 7979 7985 7998 8010 8016 8022 8022 8029 0 0 0 0 0 8010 8010 8016 8010 8016 8016 8022 8022 8016 8010 8010 8010 7991 7985 0 0 7967 7961 7967 7967 7967 7967 7973 7973 7967 0 0 0 0 0 0 0 0 0 0 0 0 0 0 0 0 0 0 8010 8010 8004 8004 8010 8010 8010 8010 8004 7998 7998 8010 0 0 0 0 0 0 7961 7967 7967 7967 7961 7955 7955 7961 7967 7979 0 0 0 0 0 0 8123 8130 8123 8123 8123 8117 8123 8117 0 0 0 0 0 0 0 0 0 0 0 0 0 0 0 0 0 0 0 0 0 0 6310 6310 6307 6303 6299 6295 6295 6291 6295 6295 6295 6291 6291 6291 6291 6287 6284 6284 6280 6276 6268 6265 6261 6253 6242 6227 6223 6208 6193 6182 6171 6160 6149 6131 6113 6102 6088 6073 6052 6034 6020 6006 5996 5986 5975 5968 5961 5958 0 0 0 0 0 0 0 7979 7955 7942 7930 7930 7930 7918 0 0 0 0 0 0 0 7955 7949 7949 7961 7967 7955 7961 7967 7985 7998 8016 8035 8054 8047 8054 8054 8054 8054 8054 8054 8047 8054 8054 8060 8066 8066 8073 8073 8066 8066 8060 8060 8047 8047 8041 8035 8041 8035 8035 8035 8035 8029 8016 8016 8010 8004 7998 7998 7991 7991 0 0 0 0 8010 8010 8010 8010 8010 8022 8022 8035 0 0 0 0 0 8079 8073 8066 8060 8054 0 0 0 0 0 0 0 0 0 8047 8041 8035 8035 8035 8029 8029 8029 8035 0 0 0 0 0 0 8066 8079 8085 8091 8098 8104 8104 8117 8117 8110 8110 8104 8098 8085 8079 8079 8079 8073 8066 8060 0 0 0 8054 8047 8035 8035 8029 8022 8016 8010 8004 7998 7991 7979 7973 7973 0 0 0 0 0 0 7949 7967 7985 8004 8029 8047 8079 8104 8130 8142 8155 8162 8168 8175 8175 8168 8162 8155 8155 8155 0 0 0 0 0 0 8047 8041 8035 0 0 0 0 0 0 0 0 0 0 0 0 0 0 0 0 0 0 0 0 0 0 0 0 0 0 0 0 0 0 0 0 0 0 0 6831 6786 6755 6729 6716 6707 6698 6698 6698 6698 6694 6698 0 0 0 0 0 0 0 0 0 0 6223 6219 6216 6208 6204 6197 6193 6190 6193 6190 6186 6182 0 0 0 0 0 0 0 0 0 0 0 0 0 0 0 0 0 0 0 0 0 0 5555 5552 5546 5540 5534 5531 5525 5517 5511 5502 5493 5481 5473 0 0 0 0 0 0 0 0 0 0 0 0 0 0 0 0 0 0 0 0 0 0 0 0 0 0 0 0 0 0 0 0 0 0 0 0 0 0 0 0 0 0 0 0 0 0 0 0 0 0 0 0 0 0 0 0 0 0 0 0 4618 4612 4608 4604 4600 4593 4589 4585 4581
0 0 0 0 0 0 0 0 0 0 0 0 0 0 0 0 0 8428 8407 8373 8359 0 8306 8266 8233 8220 8207 8200 8194 8194 8194 8187 8181 8175 8175 0 0 0 0 0 0 0 8117 8104 8098 8085 8079 8073 8060 8047 8035 8035 8035 8035 0 0 0 0 0 0 0 0 0 8022 8029 8041 8041 8054 8073 8085 8104 8117 8130 8130 8123 8123 8123 8123 8123 8110 8110 8104 8098 8085 0 0 0 0 0 0 0 0 0 0 0 0 0 0 0 0 0 0 0 0 0 0 0 0 0 0 0 0 8194 8207 8187 8175 8168 8149 8142 8136 8136 8117 8104 8098 8085 8066 8060 8035 8016 8010 7998 7985 7973 7967 7955 0 0 0 0 7906 7906 7906 7906 7918 7924 7936 7949 7961 7967 0 0 0 0 0 0 0 0 0 0 0 0 0 0 0 0 0 0 0 0 0 8110 8110 8104 8098 8091 8079 8073 8066 8047 8035 8016 8016 8004 7998 7991 7979 7973 7967 7967 7967 7967 7967 7967 7967 7979 7973 7979 7985 7998 7998 7998 8010 8016 8022 8035 8041 8035 8035 8035 8029 8029 8022 8029 8022 8022 8016 8010 8016 8010 8004 8004 0 0 8004 8004 8004 8004 8004 8004 0 0 0 0 0 0 0 0 7949 7955 7961 7961 7961 7955 7961 7967 7967 7967 7967 7967 7967 7967 7967 7973 7973 7979 7979 7979 7979 7979 7979 7979 7985 7991 7998 8004 8010 8010 8010 0 0 0 0 0 8022 8022 8022 8022 8029 8029 8041 8035 8029 8022 8022 8010 8004 7991 0 0 0 0 0 7961 7961 7967 7967 7967 7967 0 0 0 0 0 0 0 0 0 0 0 0 0 0 0 0 0 8010 8010 8016 8010 8016 8016 8016 8016 8016 8016 8010 8004 8010 0 0 0 0 0 0 7967 7961 7961 7961 7961 7955 7961 7967 7979 7991 0 0 0 0 0 8130 8136 8130 8136 8130 8123 8117 8117 8117 8104 0 0 0 0 0 0 0 0 0 0 0 0 0 0 0 0 0 0 0 0 0 6314 6310 6307 6299 6303 6291 6295 6295 6299 6295 6295 6295 6291 6291 6291 6287 6284 6284 6280 6276 6268 6261 6253 6246 6234 6223 6208 6197 6182 6171 6164 6153 6145 6131 6120 6102 6088 6070 6048 6034 6020 6003 5996 5982 5975 5965 5955 5955 0 0 0 0 0 0 0 7967 7955 7936 7930 7924 7918 7918 0 0 0 0 0 0 7955 7961 7967 7973 7973 7979 7979 7979 7985 8004 8016 8035 8047 8060 8066 8060 8066 8066 8060 8066 8060 8060 8060 8054 8066 8073 8079 8091 8091 8085 8091 8085 8085 8079 8079 8073 8066 8060 8054 8047 8047 8041 8029 8016 8010 8004 7998 7991 7985 7985 7985 0 0 0 0 0 8016 8016 8016 8016 8022 8029 8041 0 0 0 0 8085 8091 8085 8079 8079 8073 0 0 0 0 0 0 0 0 0 8047 8041 8035 8035 8035 8035 8035 8029 8035 8035 8029 8041 8041 8047 8054 8060 8073 8079 8085 8085 8091 8098 8104 8104 8104 8098 8085 8085 8073 8066 8066 8066 8060 8060 8054 8054 8047 8047 8047 8041 8029 8029 8022 8016 8004 7998 7991 7979 7973 7973 7967 7967 7961 0 0 0 7949 7955 7961 7985 8004 8022 8047 8073 8098 8123 8155 8162 8168 8175 8181 8181 8181 8168 8162 8155 8155 8149 8130 0 0 0 0 0 8054 8054 0 0 0 0 0 0 0 0 0 0 0 0 0 0 0 0 0 0 0 0 0 0 0 0 0 0 0 0 0 0 0 0 0 0 0 0 6895 6836 6791 6751 6724 6703 6694 6690 6690 6690 6694 6694 0 0 0 0 0 0 0 0 0 6231 6227 6223 6216 6212 6208 6201 6197 6193 6190 6190 6186 6186 0 0 0 0 0 0 0 0 0 0 0 0 0 0 0 0 0 0 0 5588 5579 5567 5561 5555 5546 5540 5534 5528 5525 5517 5508 5502 5496 5487 5479 5467 0 0 0 0 0 0 0 0 0 0 0 0 0 0 0 0 0 0 0 0 0 0 0 0 0 0 0 0 0 0 0 0 0 0 0 0 0 0 0 0 0 0 0 0 0 0 0 0 0 0 0 0 0 0 0 0 0 0 0 0 4628 4622 4616 4610 4602 4598 4589 4585
0 0 0 0 0 0 0 0 0 0 0 0 0 0 0 0 0 0 0 8373 8359 0 8299 8273 8240 8220 8213 8200 8194 8194 8194 8181 8181 8175 8175 8168 0 0 0 0 0 0 8123 8104 8098 8091 8079 8066 8060 8047 8041 8035 8035 8022 0 0 0 0 0 0 0 0 8022 8022 8029 8041 8054 8060 8079 8091 8117 8130 8136 8142 8142 8142 8136 8130 8136 8130 8123 8110 8104 8098 0 0 0 0 0 0 0 0 0 0 0 0 0 0 0 0 0 0 0 0 0 0 0 0 0 0 0 0 0 0 0 8155 8149 8136 8130 8123 8110 8110 8098 8079 8073 8060 8047 8029 8010 7998 7991 7985 7973 7967 0 0 0 0 0 0 7924 7930 7930 7942 7949 7955 7967 7979 7985 7998 0 0 8016 8010 0 0 0 0 0 0 0 0 0 7961 0 0 0 0 0 0 8136 8130 8123 8117 8110 8098 8085 8073 8060 8041 8029 8016 8004 7998 7991 7985 7973 7973 7967 7967 7967 7967 7973 7973 7985 7985 7991 7991 7998 8004 8004 8010 0 0 0 8035 8029 8035 8035 8035 8035 8035 8029 8029 8022 8022 8016 8016 8010 8004 7998 7998 0 7998 7991 7991 7991 7991 7991 0 0 0 0 0 0 0 7949 7955 7961 7961 7967 7967 7973 7973 7973 7985 7979 7973 7979 7979 7973 7973 7973 7979 7979 7979 7979 7979 7979 7979 7979 7979 7985 7991 7991 7991 7998 0 0 0 0 0 0 8022 8029 8022 8029 8029 8035 8029 8029 8029 8029 8022 8016 0 0 0 0 0 0 0 0 0 7949 7942 7942 7942 0 0 0 0 0 0 0 0 0 0 0 0 0 0 0 0 0 8010 8016 8016 8022 8022 8022 8022 8022 8022 8022 8016 8010 0 0 8004 7998 7985 0 0 7967 7961 7961 7955 7961 7961 7955 7961 7985 8004 8022 0 0 0 8123 8136 8142 8142 8136 8136 8130 8123 8117 8110 8091 0 0 0 0 0 0 0 0 0 0 0 0 0 0 0 0 0 0 0 0 6322 6318 6314 6307 6303 6303 6299 6299 6299 6299 6295 6295 6295 6295 6295 6291 6287 6284 6284 6280 6276 6268 6257 6249 6238 6227 6216 6201 6190 6175 6164 6156 6149 6142 6127 6116 6098 6084 6070 6048 6031 6017 6006 5992 5979 5972 5961 0 0 0 0 0 0 0 0 7979 7967 7942 7936 7930 7924 7918 7912 7906 7906 0 0 0 7955 7967 7967 7973 7979 7991 7998 7991 7998 8004 8029 8041 8047 8054 8073 8073 8073 8073 8073 8073 8073 8066 8060 8060 8066 8073 8085 8091 8098 8110 8110 8117 8110 8110 8104 8098 8091 8085 8073 8066 8060 8060 8047 8035 8022 8016 8010 7998 7991 7985 7979 0 0 0 0 0 0 8016 8016 8022 8022 8029 8035 0 0 0 0 0 0 0 8098 8098 8098 0 0 0 0 0 0 0 0 0 0 8054 8047 8041 8041 8041 8035 8029 8035 8041 8041 8041 8041 8047 8047 8047 8054 8066 8073 8079 8079 8079 8085 8085 8085 8085 8079 8066 8066 8060 8047 8054 8054 8060 8054 8054 8054 8047 8047 8047 8035 8029 8010 8004 7998 7985 7979 7967 7961 7955 7949 7949 7955 7949 0 0 0 7967 7967 7979 7998 8016 8035 8060 8085 8117 8136 8155 8168 8175 8181 8187 8181 8175 8168 8162 8149 8149 8142 8117 0 0 0 8066 8060 8066 8066 0 0 0 0 0 0 0 0 0 0 0 0 0 0 7961 7967 7967 7961 7961 7961 7961 0 0 0 0 0 0 0 0 0 0 0 0 0 0 0 6955 6895 6836 6782 0 6707 6694 6694 6694 6694 6690 6690 0 0 0 0 0 0 0 0 0 6231 6227 6223 6216 6216 6204 6204 6201 6197 6190 6190 6186 6186 6186 0 0 0 0 0 0 0 0 0 0 0 0 0 0 0 0 0 0 5591 5582 5570 5561 5555 5549 5543 5537 5534 5525 5517 5511 5502 5496 5487 5481 5473 0 0 0 0 0 0 0 0 0 0 0 0 0 0 0 0 0 0 0 0 0 0 0 0 0 0 0 0 0 0 0 0 0 0 0 0 0 0 0 0 0 0 0 0 0 0 0 0 0 0 0 0 0 0 0 0 0 0 0 4651 4643 4635 4626 4620 4614 4606 4600 4591
0 0 0 0 0 0 0 0 0 0 0 0 0 0 0 0 0 0 8387 8366 8346 0 8306 8273 8240 8220 8213 8207 8194 8194 8187 8181 8175 8168 8168 8155 8149 0 0 0 0 0 0 8110 8104 8091 8079 8073 8060 8047 8041 8035 8029 8029 8022 0 0 0 0 0 0 0 8029 8029 8041 8047 8060 8073 8085 8098 8117 8136 8142 8149 8155 8149 8142 8142 8142 8136 8136 8123 0 0 0 0 0 0 0 0 0 0 0 0 0 0 0 0 0 0 0 0 0 0 0 0 0 0 0 0 0 0 0 0 0 0 8123 8110 8104 8098 8098 8091 8079 8073 8060 8054 8035 8022 8004 7991 7985 7973 7967 0 0 0 0 0 0 0 0 7949 7955 7955 7967 7973 7985 7998 8004 8010 8016 8016 8029 8022 8010 7991 7979 7961 7930 7918 7924 7930 7942 7979 8004 8029 8073 8104 8136 8149 8149 8149 8142 8142 8123 8110 8098 0 8066 8047 8035 8022 8010 8004 0 0 0 0 7973 7973 7979 7979 7973 7979 7991 7985 7991 7998 7998 0 8004 0 0 0 0 0 8035 8035 8035 8041 8041 8035 8041 8035 0 0 0 8016 0 0 7998 0 0 7991 7991 7991 7991 7991 0 0 0 0 0 0 0 0 7979 7979 7985 7985 7991 7991 7991 7991 7991 7998 7998 7991 7991 7985 7979 7979 7979 7979 7979 7979 7979 7979 7979 7985 7985 0 0 0 0 7998 7998 7998 0 0 0 0 8016 8022 8022 8029 8029 8029 8035 8035 8035 8029 8029 8022 0 0 0 0 0 0 0 0 0 0 7912 0 0 7888 0 0 0 0 0 0 0 0 0 0 0 0 0 0 0 0 0 0 8016 8016 8016 8022 8022 8022 8029 8022 8016 8016 8004 0 0 8010 8004 7998 0 0 0 0 0 7961 7955 7955 7955 7961 7979 7998 8016 8047 8073 8098 8117 8136 8142 8142 8136 8130 8123 8117 8110 8098 8085 8066 8041 8016 7998 7979 0 0 0 0 0 0 0 0 0 0 0 0 0 0 6330 6322 6318 6318 6314 6310 6307 6303 6303 6303 6299 6299 6299 6299 6295 6295 6291 6291 6287 6284 6280 6276 6265 6257 6246 6234 6219 6208 6193 6178 6171 6160 6153 6145 6138 6127 6113 6095 6080 6063 6048 6031 6017 6010 5996 5986 5972 5961 0 0 0 0 0 0 0 8004 7985 7967 7955 7942 7936 7930 7924 7918 7912 7912 7918 7936 7949 7967 7967 7973 7985 7991 7998 8004 8004 8004 0 0 8054 8066 8073 8079 8079 8079 8079 8079 8079 8073 8073 8066 8073 8073 8085 8098 8104 8110 8123 8123 8130 8130 8130 8123 8117 8110 8104 8085 8079 8073 8066 8054 8041 8022 8016 8010 7998 7985 7979 7967 0 0 0 0 0 0 8016 8022 8029 8035 8035 0 0 0 0 0 0 0 0 8110 0 0 0 0 0 0 0 0 0 0 0 8060 8054 8054 8054 8047 8047 8041 8047 8047 8054 8054 8047 8047 8047 8047 8047 8054 8060 8066 8060 8066 8066 8066 8066 8066 8060 8054 8047 8047 8041 8041 8041 8054 8054 8054 8047 8047 8047 8041 8041 8029 8022 8004 7991 7979 7973 7961 7955 7949 7949 7942 7942 7949 7955 0 0 7973 7985 7991 7998 8016 8035 8047 8073 8098 8123 8149 8168 8175 8175 8181 8181 8181 8168 8155 8142 8142 8136 8123 8098 8079 0 0 0 0 8073 8073 0 0 0 0 0 0 0 0 0 0 0 0 0 0 7967 7967 7967 7967 7967 7967 7967 0 0 0 0 0 0 0 0 0 0 0 0 7157 7108 0 0 6941 0 0 0 0 0 0 6681 6681 6681 0 0 0 0 0 0 0 0 0 0 6242 6231 6227 6223 6216 6208 6201 6197 6193 6190 6190 6186 6186 6186 6178 0 0 0 0 0 0 0 0 0 0 0 0 0 0 0 0 0 0 5582 5570 5564 5558 5552 5543 5537 5534 5525 5519 5514 5505 5499 5490 5481 5473 0 0 0 0 0 0 0 0 0 0 0 0 0 0 0 0 0 0 0 0 0 0 0 0 0 0 0 0 0 0 0 0 0 0 0 0 0 0 0 0 0 0 0 0 4843 4838 4834 0 0 0 0 0 0 0 0 0 0 0 0 4662 4651 4645 4635 4628 4622 4616 4610 4600
0 0 0 0 0 0 0 0 0 0 0 0 0 0 0 0 0 0 8359 8346 8339 0 8292 8273 8227 8220 8213 8200 8194 8187 8181 8168 8168 8162 8155 8149 8142 8155 0 0 0 0 8130 8117 8104 8091 8085 8079 8066 8047 8047 8041 8035 8029 8029 0 0 0 0 0 0 8054 8047 8041 8060 8060 8073 8085 8091 8110 8123 8142 8149 8155 8155 8155 8155 8149 8149 8142 8136 8123 0 0 0 0 0 0 0 0 0 0 0 0 0 0 0 0 0 0 0 0 0 0 0 0 0 0 0 0 0 0 0 0 0 0 0 8098 8085 8085 8079 8073 8066 8054 8054 8041 8035 8016 7998 7991 7979 7973 7973 7973 0 0 0 0 0 0 0 7973 7973 7979 7979 7991 8004 8010 8016 8022 8022 8029 8035 8029 8016 7998 7985 7961 7936 7918 7924 7936 7949 7985 8016 8035 8073 8110 8142 8155 8155 8162 8155 8149 8136 8123 8104 8091 0 8054 8035 8029 8016 8010 7998 7991 7979 7979 7973 7979 7979 7985 7979 7985 7998 7998 7998 7998 7998 8004 8004 0 0 0 0 0 0 8041 8047 8047 8047 8047 8047 8041 0 0 0 0 0 0 0 7991 7991 7985 7985 7991 7991 7985 7985 7998 7998 0 0 0 0 7998 7998 7998 7998 7998 8004 8010 8010 8016 8016 8022 8016 8016 8010 7998 7998 7991 7991 7985 7985 7985 7985 7979 7985 7985 0 0 0 0 8004 8004 8004 8004 8004 0 0 8016 8022 8022 8029 8029 8029 8035 8041 8041 8035 8029 8029 8029 0 0 0 0 0 0 0 0 0 0 0 0 0 0 0 0 0 0 0 0 0 0 0 0 0 0 0 0 0 0 0 0 8016 8016 8016 8022 8022 8022 8029 0 0 8016 0 0 0 0 8004 0 0 0 0 0 0 0 0 7955 7955 7961 7973 7991 8004 8035 8060 8079 8104 8123 8130 8130 8130 8123 8110 8104 8091 8079 8066 8054 8029 8004 7985 7973 7961 0 0 0 0 0 0 0 0 0 0 0 0 0 6330 6326 6326 6322 6318 6314 6314 6310 6307 6307 6307 6303 6303 6299 6299 6295 6291 6291 6287 6284 6280 6272 6265 6253 6242 6231 6216 6201 6190 6175 6164 6156 6153 6145 6135 6120 6106 6088 6073 6059 6048 6034 6024 6013 0 5989 0 0 5955 0 0 0 0 0 0 0 7998 7979 7961 7955 7942 7942 7930 7930 7918 7918 7924 7942 7961 7967 7973 7979 7991 7998 8010 8022 8016 0 0 0 0 8073 8079 8085 8085 8085 8085 8079 8079 8079 8079 8079 8073 8079 8091 8098 8110 8123 8130 8136 8136 8136 8136 8130 8123 8110 8098 8085 8079 8066 8060 8047 8035 8022 8010 7998 7991 7979 7973 7961 7961 7961 7973 7979 7991 8010 8022 8035 8041 8047 8047 8054 8066 8073 8079 8091 8104 8104 8110 8117 8117 8117 8117 0 0 0 0 0 0 0 8085 8073 8073 8073 8066 8060 8060 8066 8060 8060 8066 8060 8060 8060 8054 8054 8054 8054 8054 8054 8054 8047 8047 8054 8054 8054 8054 8047 8041 8035 8035 8035 8041 8047 8041 8047 8054 8054 8054 8054 8047 8035 8016 8004 7991 7973 7961 7955 7949 7949 7942 7936 7949 7955 7961 0 7979 7985 7991 8004 8016 8029 8041 8066 8091 8117 8136 8149 8162 8168 8168 8175 8175 8168 8155 8142 8130 8117 8104 8098 8079 8066 0 0 0 8066 8066 8073 8073 0 0 0 0 0 0 0 0 0 0 0 0 0 7973 7973 7967 7967 7967 7967 7967 0 0 0 0 0 0 0 0 0 0 0 7237 7197 7152 7118 7069 0 0 0 0 0 0 0 0 6672 0 0 0 0 0 0 0 0 0 0 0 0 6238 6231 6219 6216 6208 6201 6201 6193 6190 6186 6182 6178 6178 6178 0 0 0 0 0 0 0 0 0 0 0 0 0 0 0 0 0 5594 5579 5570 5564 5558 5552 5546 5540 5537 5531 5522 5514 5508 5502 5490 5487 5476 5458 0 0 0 0 0 0 0 0 0 0 0 0 0 0 0 0 0 0 0 0 0 0 0 0 0 5043 5038 5036 5038 5031 0 0 0 0 0 0 0 0 0 0 0 0 4847 4843 4838 4834 4825 4818 0 0 0 0 0 0 0 0 0 4681 4670 4662 4651 4643 4637 4628 4622 4614 4608
0 0 0 0 0 0 0 0 0 0 0 0 0 8246 8306 0 0 8353 8346 8339 8312 8299 8286 8259 8233 8220 8213 8200 8187 8181 8181 8168 8162 8155 8149 8142 8142 8149 8149 8142 8149 8149 8136 8130 8110 8104 8085 8079 8066 8060 8047 8047 8041 8035 8035 8035 0 0 0 0 0 0 8060 8060 8066 8079 8085 8091 8104 8117 8130 8136 8149 8155 8155 8149 8155 8149 8142 8136 8130 8123 0 0 0 0 0 0 0 0 0 0 0 0 0 0 0 0 0 0 0 0 0 0 0 0 0 0 0 0 0 0 0 0 0 0 0 0 8066 8066 8060 8060 8054 8054 8047 0 0 0 0 7985 7979 7973 7973 0 0 0 0 0 0 0 0 0 7998 8004 8004 8004 8029 8029 8035 8035 8035 8035 8035 8029 8016 8004 7985 0 0 0 0 0 0 7991 8016 8041 8066 8104 8136 8162 8168 8168 8162 8155 8155 8136 8117 8104 8085 8060 8041 8035 8022 8010 7998 7991 7985 7985 7979 7979 7985 7985 7985 7991 8004 7998 7991 7998 7998 7998 8004 0 0 0 0 0 0 0 8041 8047 8041 8047 8047 8041 0 0 0 0 0 0 0 7985 7991 7985 7985 7985 7985 7985 7998 7998 0 0 0 0 0 8022 8016 8022 8022 8022 8022 8029 8029 8035 8035 8041 8041 8041 8029 8022 8010 8004 8004 8004 7998 7991 7985 7985 7991 7985 7991 7991 7998 8004 8004 8010 8010 8016 8016 8010 8016 8016 8022 8029 8029 8029 8029 8035 8035 8035 8029 8029 8022 8022 0 0 0 0 0 0 0 0 0 0 0 0 0 0 0 0 0 0 0 0 0 0 0 0 0 0 0 0 0 0 0 8010 8010 8010 0 0 0 8016 8016 8016 8016 8016 8010 0 8010 8010 8010 0 0 0 0 0 0 0 0 0 7949 7961 7973 7985 7998 8022 8047 8066 8091 8104 8117 8117 8110 8110 8098 8085 8073 8060 8047 8029 8010 7991 7973 7961 7955 7942 0 0 0 0 0 0 0 0 0 0 0 0 6330 6326 6330 6326 6326 6318 6318 6314 6310 6314 6310 6307 6303 6303 6299 6295 6291 6291 6287 6284 6280 6272 6261 6249 6238 6223 6208 6193 6186 6171 6160 6153 6149 6142 6131 6113 6091 6077 6063 6048 6038 6031 6020 6010 0 0 0 0 5944 0 0 0 0 0 0 0 0 7991 7979 7961 7955 7949 7936 7930 7930 7930 7936 7949 7961 7967 7973 7991 7998 8004 8016 8029 0 0 0 0 8073 8079 8085 8091 8091 8085 8085 8091 8085 8085 8079 8079 8079 8085 8098 8110 8117 8123 8130 8136 8142 8142 8136 8130 8123 8110 8098 8085 8073 8060 8054 8041 8029 8016 8004 7991 7991 7979 7967 7961 7955 7955 7973 7979 8004 8022 8035 8047 8054 8060 8066 8073 8079 8091 8091 8098 8104 8110 8110 8110 0 0 0 0 0 0 0 0 0 8117 8117 8104 8098 8091 8085 8079 8085 8079 8079 8079 8079 8079 8073 8066 8066 8060 8054 8054 8054 8054 8047 8047 8041 8041 8041 8047 8041 8041 8035 8035 8035 8029 8035 8047 8054 8054 8054 8054 8047 8054 8047 8035 8029 8010 7991 7973 7961 7955 7955 7949 7949 7942 7955 7961 7967 7973 7985 7998 8004 8022 8029 8041 8060 8085 8110 8123 8149 8155 8155 8155 8162 8155 8155 8155 8136 8123 8110 8098 8091 8079 8060 0 0 0 0 8066 8066 8066 8073 0 0 0 0 0 0 0 0 0 0 0 0 0 0 7967 7973 7967 7967 7967 7967 0 0 0 0 0 0 0 0 0 0 7293 7268 7237 7202 7182 7142 0 0 0 0 0 0 0 0 0 0 0 0 0 0 0 0 0 0 0 0 6268 6249 6234 6223 6216 6204 6197 6190 6186 6182 0 0 6164 6164 6156 6153 0 0 0 0 0 0 0 0 0 0 0 0 0 0 0 0 5594 5585 5570 5564 5558 5552 5549 5543 5537 5528 5522 5517 5511 5502 5490 5487 0 0 0 0 0 0 0 0 0 0 0 0 0 0 0 0 0 0 0 0 0 0 0 0 0 0 0 5041 5038 5038 0 0 0 0 0 0 0 0 0 0 0 0 0 0 4850 4843 4838 4827 4820 4813 4807 4791 0 0 0 4730 4715 4702 4693 4687 4676 4668 4658 4647 4641 4632 4626 4618 4610
0 0 0 0 0 0 0 0 0 0 0 8117 0 0 8253 8299 8326 8333 8326 8319 8306 8286 8286 8259 8233 8227 8220 8200 8187 8187 8181 8175 8162 8155 8142 8142 8142 8149 8149 8149 8155 8155 8142 8136 8123 8110 8091 8079 8066 8060 8054 8047 8041 8035 8041 8029 8029 0 0 0 0 0 8079 8079 8085 8091 8098 8104 8117 8123 8130 8136 8136 8142 8142 8142 8136 8130 8130 8123 8117 8104 8098 0 0 0 0 0 0 8073 8079 8085 0 0 0 0 0 0 0 0 0 0 0 0 0 0 0 0 0 0 0 0 0 0 0 0 0 0 8060 8066 8060 8060 8054 8047 0 0 0 0 0 0 7979 7973 7973 7973 0 0 0 0 0 0 0 0 8022 8029 8029 8029 8035 8041 8041 8041 8041 8041 8041 8041 8022 0 0 0 0 0 0 0 0 8004 8029 8054 8079 8098 8136 8149 8162 8168 8155 8155 8149 8142 8123 8098 8085 8060 8047 8029 8022 8016 8010 8004 7991 7991 7991 7991 7998 7998 7991 7998 8004 8004 7998 8004 7998 7998 0 0 0 0 0 0 0 0 8029 8035 8035 8035 8035 8035 0 0 0 0 0 0 0 0 0 7985 7985 7985 7979 7985 7985 7998 8010 8010 0 0 0 0 0 8041 8047 8041 8041 8047 8054 8060 8060 8066 8060 8054 8054 8041 8029 8016 8016 8016 8004 0 0 0 0 0 0 0 0 0 0 8022 8029 8022 8029 8022 8029 8029 8029 8035 8029 8035 8029 8029 8029 8029 8022 8016 8010 8004 0 0 0 0 0 0 0 0 0 0 0 0 0 0 7822 7822 0 0 0 0 0 0 0 0 0 0 0 0 0 0 8004 8010 8010 0 0 0 0 0 0 8016 8016 8010 8010 8010 8010 8010 8010 0 0 0 0 0 0 0 0 0 7949 7961 7973 7985 7998 8016 8041 8054 8073 8085 8091 8098 8098 8091 8079 8073 8060 8047 8035 8022 7998 7979 7961 7949 7942 0 0 0 0 0 0 0 0 0 0 0 0 6330 6330 6330 6330 6326 6330 6322 6322 6318 6318 6318 6310 6307 6303 6303 6299 6295 6291 6291 6280 6276 6272 6268 6257 6246 6227 6216 6201 6190 6178 6164 6153 6142 6142 6131 6120 0 6077 6066 6056 6041 6031 6027 6024 6013 6010 0 0 0 0 0 0 0 0 0 0 0 0 0 7985 7973 7967 7955 7949 7942 7942 7942 7949 7961 7973 7979 7991 7991 8004 8010 8022 8035 0 8041 8054 8066 8079 8085 8091 8091 8091 8091 8091 8091 8091 8085 8085 8085 8085 8098 8110 8117 8123 8130 8136 8142 8142 8142 8136 8130 8117 8104 8091 8085 8073 8060 8054 8041 8029 8010 7998 7985 7979 7973 7967 7961 7961 7967 7979 7991 8004 8022 8047 8066 8079 8079 8091 8098 8104 8117 8117 8117 8110 0 8117 8110 0 0 0 0 0 0 0 0 8155 8149 8149 8142 8136 8136 8123 8117 8110 8104 8104 8098 8098 8091 8085 8079 8073 8066 8060 8054 8054 8047 8041 8047 8041 8041 8041 8047 8047 8041 8041 8041 8035 8029 8041 8047 8054 8054 8060 8054 8054 8054 8054 8041 8029 8016 7998 7973 7967 7955 7949 7949 7942 7955 7961 7967 7967 7985 7991 8004 8016 8029 8041 8054 8066 8091 8110 8130 8142 8149 8149 8149 8149 8155 8155 8142 8123 8110 8098 8085 8079 8066 8054 8047 8041 8041 8054 8060 8066 8073 8079 8073 0 0 0 0 0 0 0 0 0 0 0 0 7973 7973 7973 7967 7967 7973 0 0 0 0 0 0 0 0 0 0 0 7298 7288 7273 7257 7247 7237 0 0 0 0 0 0 0 0 0 0 0 0 0 0 0 0 0 0 0 0 6287 6257 6234 6219 6208 6201 6193 6182 6175 6167 0 0 0 6145 6138 0 0 0 0 0 0 0 0 0 0 0 0 0 0 0 0 0 0 5585 5573 5564 5558 5555 5546 5540 5537 5531 5522 5517 5514 5505 5496 0 0 0 0 0 0 0 0 0 0 0 0 0 0 0 0 0 0 0 0 0 0 0 0 0 0 0 0 5038 5041 5036 0 0 0 0 0 0 0 0 0 0 0 0 0 4854 4850 4840 4829 4818 4811 4800 4793 4780 4763 4749 4739 4728 4713 4702 4696 4687 4679 4670 4660 4651 4641 4635 4628 4622 4610
0 0 0 0 0 0 0 0 0 0 0 0 0 8162 8213 8259 8292 8306 8306 8306 8299 8292 8273 8246 8227 8220 8207 8200 8187 8187 8175 8162 8155 8155 8142 8130 8136 8142 8149 8149 8149 8149 8149 8142 8136 8123 8110 8091 8079 8066 8054 8054 8047 8041 8041 8035 8041 8041 8060 8060 8073 8079 8079 8085 8091 8098 8110 8110 8123 8123 8130 8130 8130 8130 8130 8130 8123 8117 8117 8110 8098 8091 8073 0 0 0 0 0 0 8073 8079 8085 8079 8073 8073 0 0 0 0 0 0 0 0 0 0 0 0 0 0 0 0 0 0 0 0 0 0 0 8073 8079 8073 8066 8060 8054 0 0 0 0 0 0 7985 7998 8004 8010 0 0 0 0 0 0 0 0 0 8047 8047 8041 8047 8054 8054 8054 8054 8047 8047 8041 8035 0 0 0 0 0 0 0 0 8022 8041 8060 8079 8104 8130 8149 8162 8155 8149 8142 8130 8123 8104 8091 8066 8054 8041 8035 8022 8016 8004 8010 7998 7998 8004 8004 8004 8004 8004 8004 8010 8004 8010 8004 7998 7998 7991 0 0 0 0 0 0 8016 8016 8022 8029 8029 8035 8035 0 0 0 0 0 0 0 0 0 0 0 7985 7979 7979 7979 7991 7998 8016 8029 8035 8041 8047 8047 8054 8060 8060 8060 8066 8073 8073 8079 8079 8073 8066 8060 8054 8041 8029 8029 0 0 0 0 0 0 0 0 8029 8035 8035 8035 8041 8041 8035 8035 8029 8029 8035 8029 8035 8035 8035 8029 8029 8029 8022 8016 8010 8004 7991 0 0 0 0 0 0 0 0 0 0 7805 7805 7805 7805 7811 7816 7822 7828 0 0 0 0 0 0 0 0 0 0 0 7998 7998 7998 8004 0 0 0 0 0 0 8016 8016 8010 8010 8016 8010 8010 8010 0 0 0 0 0 0 0 0 0 7955 7961 7979 7985 7998 8016 8035 8047 8060 8073 8079 8079 8079 8079 8066 8054 8041 8035 8016 8004 7979 7961 7949 7930 7918 7912 7906 0 0 0 0 0 0 0 0 0 0 0 6326 6330 6330 6330 6330 6326 6326 6322 6322 6318 6314 6310 6307 6303 6299 6295 6291 6287 6284 6280 6276 6268 6257 6238 6223 6208 6193 6182 6175 6160 6145 6142 0 0 0 0 0 0 0 0 0 6024 6017 6017 0 0 0 0 0 0 0 0 0 0 0 0 8004 7991 7985 7979 7973 7961 7955 7955 7949 7949 7955 7967 7979 7985 7991 7998 8004 8016 8029 8041 8041 8047 8060 8066 8079 8091 8091 8091 8091 8091 8085 8091 8085 8085 8085 8085 8085 8091 8104 8117 8123 8136 8142 8136 8142 8142 8136 8123 8117 8104 8098 8079 8073 8066 8060 8047 8035 8016 8004 7991 7985 7979 7973 7967 7961 7967 7979 7991 0 8029 8047 8079 8091 8104 8110 8123 8136 8142 8149 8142 8136 0 0 0 0 0 0 0 0 0 0 8168 8162 8162 0 0 8162 8155 8149 8142 8136 8130 8130 8117 8110 8104 8091 8085 8073 8060 8054 8054 8054 8047 8054 8047 8047 8054 8054 8054 8054 8047 8047 8047 8041 8041 8047 8047 8054 8054 8060 8060 8060 8054 8054 8047 8035 8022 8004 7985 7973 7973 7967 7967 7961 7961 7967 7979 7979 7991 8004 8010 8022 8035 8047 8066 8079 8091 8117 8123 8130 8136 8136 8136 8136 8136 8142 8130 8117 8098 8079 8073 8073 8060 8047 8041 8041 8041 8054 8066 8066 8073 8079 8066 8047 0 0 0 0 0 0 0 0 0 0 0 7979 7973 7973 7973 7973 7973 7967 0 0 0 0 0 0 0 0 0 7376 7319 7298 0 0 0 0 0 0 0 0 0 0 0 0 0 0 0 0 0 0 0 0 6488 6440 0 6357 6303 6265 6234 6216 6204 6193 6182 6171 6164 6153 0 0 6131 6127 0 0 0 0 0 0 0 0 0 0 0 0 0 0 0 0 0 0 0 0 5573 5561 5558 5549 5546 5540 5534 5528 5525 5519 5514 5511 0 0 0 0 0 0 0 0 0 0 0 0 0 0 0 0 0 0 0 0 0 0 0 0 0 0 5041 5041 5038 5036 5031 5029 5024 0 0 0 0 0 0 0 0 0 0 0 4870 4861 0 0 4829 4813 4805 4796 0 4771 4758 4741 4730 4723 4713 4704 4693 4689 4679 4670 4660 4649 4641 4635 4628 4622 4610
0 0 0 0 0 0 0 0 0 7998 8041 8066 0 8142 8194 8233 8259 8279 8286 8286 8292 8279 8266 8246 8227 8220 8207 8194 8187 8181 8168 8162 8149 8142 8130 8123 8123 8130 8142 8142 8149 8149 8155 8149 8149 8142 8123 8104 8085 8073 8060 8060 8054 8047 8047 8047 8047 8054 8066 8073 8079 8098 8098 8098 8104 8104 8117 8117 8123 8123 8123 8123 8123 8123 8117 8110 8104 8098 8091 8079 8073 8073 8060 0 0 0 0 0 8060 8073 8079 8079 8079 8073 8066 8060 0 0 0 0 0 0 0 0 0 0 0 0 0 0 0 0 0 0 0 0 0 0 8085 8085 8085 8079 8066 8066 0 0 0 0 0 7991 7998 8010 8016 8022 8035 0 0 0 0 0 0 0 0 8054 8054 8054 8054 8060 8066 8060 8060 8060 8060 8060 8060 0 0 0 0 0 0 0 0 8047 8066 8079 8098 8098 8123 8142 8136 8136 8117 8117 8098 8085 8073 8060 8047 8035 8029 8022 8010 8016 8010 8016 0 8004 8004 8010 8010 8010 8010 8010 8016 8010 8004 7998 7985 7985 7985 7985 7979 7973 7979 7985 7991 8004 8010 8016 8016 8016 8022 8022 0 0 0 0 0 0 0 0 0 0 0 7985 7979 7979 7985 7991 7998 8010 8029 8041 8047 8054 8060 8066 8073 8073 8079 8079 8079 8085 8085 8085 8079 8073 8066 8060 8047 8041 8035 0 0 0 0 0 0 0 0 0 8047 8060 8054 8054 8047 8047 8041 8035 8035 8035 8029 8029 8035 8035 8029 8022 8022 8016 8010 8004 7991 7991 0 0 0 0 0 0 0 0 7816 7811 7805 7799 7805 7805 7811 7811 7822 7828 0 0 0 0 0 0 0 0 0 0 7979 7991 7991 7991 7998 7998 0 0 0 0 8016 8016 8016 8010 8010 8010 8010 8010 0 0 0 0 0 0 0 0 0 7961 7961 7961 7973 7979 7985 8004 8016 8029 8047 8054 8066 8060 8066 8060 8047 8035 8029 8016 7998 7973 7955 7936 7906 7894 7888 7876 0 0 0 0 0 0 0 0 0 0 0 6322 6326 6330 6326 6330 6326 6326 6326 6322 6322 6318 6314 6310 6307 6303 6299 6295 6291 6287 6280 6276 6272 6265 6249 6234 6216 6201 6190 6178 6167 6156 6145 6138 0 0 0 0 0 0 6041 6031 6027 6020 6017 6013 6006 0 0 0 0 0 0 0 0 0 0 8016 8004 7998 7991 7985 7979 7973 7961 7961 7961 7961 7967 7979 7985 7991 8004 8004 8016 8022 8035 8041 8047 8054 8060 8073 8085 8091 8098 8098 8098 8085 8085 8085 8085 8085 8079 8079 8085 8091 8104 8123 8123 8130 8136 8136 8136 8136 8130 8123 8117 8104 8085 8079 8073 8060 8060 8047 8035 8016 8004 7998 7991 7979 7973 7973 7967 7967 7979 7998 0 8035 8060 8085 8110 8117 8130 8149 8155 8162 8175 0 0 0 0 0 0 0 0 0 0 0 0 8175 8175 8168 8175 0 8175 8168 8168 8162 8162 8149 8142 8130 8123 8117 8098 8091 8073 8066 8060 8054 8047 8047 8047 8047 8041 8047 8054 8060 8060 8054 8054 8054 8047 8041 8047 8054 8054 8060 8054 8060 8060 8047 8060 8047 0 0 0 0 0 0 7973 7967 7973 7973 7979 7985 7991 7991 8010 8022 8035 0 0 0 0 0 8110 8117 8123 8123 8123 8123 8117 8123 8123 8117 8104 0 8073 8060 8060 8054 8047 8041 8041 8047 8060 8066 8073 8073 8079 8060 0 0 0 0 0 7967 0 0 7973 7967 7979 7979 7979 7973 7979 7979 7973 7973 7967 7961 7949 0 0 0 7852 0 7593 7494 0 7345 7314 0 0 0 0 0 0 0 0 0 0 0 0 0 0 0 0 0 0 0 6546 6509 6464 6428 6380 0 0 0 0 6193 6186 6171 6160 6149 6138 0 0 6113 6106 0 0 0 0 0 0 0 0 0 0 0 0 0 0 0 0 0 0 0 0 0 5561 5555 5549 5540 5534 5534 5525 5519 5519 5517 0 0 0 0 0 0 0 0 0 0 0 0 0 0 0 0 0 0 0 0 0 0 0 0 0 0 0 0 5038 5036 5031 5026 5016 5009 0 0 0 0 0 0 0 0 0 0 0 4882 4870 4861 4843 4829 4809 4796 0 4774 4763 4749 4736 4726 4719 4708 4700 4691 4687 4681 4674 4662 4653 4643 4639 4628 4622 4612
